ply
format ascii 1.0
comment : MagicaVoxel @ Ephtracy
element vertex 160
property float x
property float y
property float z
property uchar red
property uchar green
property uchar blue
end_header
3 -5 0 54 54 54
4 -5 0 54 54 54
0 -4 0 86 86 86
1 -4 0 86 86 86
2 -4 0 86 86 86
3 -4 0 54 54 54
4 -4 0 54 54 54
-6 -3 0 197 200 189
-5 -3 0 135 138 130
-4 -3 0 135 138 130
-3 -3 0 197 200 189
0 -3 0 86 86 86
-6 -2 0 135 138 130
-5 -2 0 197 200 189
-4 -2 0 197 200 189
-3 -2 0 135 138 130
-2 -2 0 86 86 86
-1 -2 0 86 86 86
0 -2 0 86 86 86
-6 -1 0 197 200 189
-5 -1 0 135 138 130
-4 -1 0 197 200 189
-3 -1 0 135 138 130
0 -1 0 86 86 86
0 0 0 86 86 86
0 1 0 86 86 86
2 1 0 135 138 130
3 1 0 197 200 189
4 1 0 197 200 189
5 1 0 197 200 189
0 2 0 86 86 86
1 2 0 86 86 86
2 2 0 197 200 189
3 2 0 197 200 189
4 2 0 197 200 189
5 2 0 135 138 130
2 3 0 135 138 130
3 3 0 197 200 189
4 3 0 135 138 130
5 3 0 135 138 130
3 -5 1 114 114 114
4 -5 1 114 114 114
3 -4 1 114 114 114
4 -4 1 114 114 114
-5 -2 1 241 244 230
-4 -2 1 241 244 230
3 2 1 241 244 230
4 2 1 241 244 230
3 -5 2 157 255 76
4 -5 2 157 255 76
3 -4 2 114 114 114
4 -4 2 114 114 114
-5 -2 2 241 244 230
-4 -2 2 241 244 230
3 2 2 241 244 230
4 2 2 241 244 230
-5 -2 3 241 244 230
-4 -2 3 241 244 230
3 2 3 241 244 230
4 2 3 241 244 230
-5 -2 4 241 244 230
-4 -2 4 241 244 230
-5 -1 4 135 138 130
-4 -1 4 135 138 130
3 2 4 241 244 230
4 2 4 241 244 230
3 3 4 135 138 130
4 3 4 135 138 130
-5 -2 5 241 244 230
-4 -2 5 241 244 230
-5 -1 5 135 138 130
-4 -1 5 135 138 130
3 2 5 241 244 230
4 2 5 241 244 230
3 3 5 135 138 130
4 3 5 135 138 130
-7 -5 6 241 244 230
-6 -5 6 37 79 142
-5 -5 6 15 134 213
-4 -5 6 37 79 142
-3 -5 6 76 181 223
-2 -5 6 241 244 230
-5 -2 6 241 244 230
-4 -2 6 241 244 230
1 -1 6 241 244 230
2 -1 6 37 79 142
3 -1 6 15 134 213
4 -1 6 37 79 142
5 -1 6 76 181 223
6 -1 6 241 244 230
3 2 6 241 244 230
4 2 6 241 244 230
-7 -4 7 241 244 230
-6 -4 7 37 79 142
-5 -4 7 76 181 223
-4 -4 7 37 79 142
-3 -4 7 15 134 213
-2 -4 7 241 244 230
-5 -2 7 241 244 230
-4 -2 7 241 244 230
1 0 7 241 244 230
2 0 7 76 181 223
3 0 7 15 134 213
4 0 7 37 79 142
5 0 7 15 134 213
6 0 7 241 244 230
3 2 7 241 244 230
4 2 7 241 244 230
-7 -3 8 241 244 230
-6 -3 8 37 79 142
-5 -3 8 37 79 142
-4 -3 8 15 134 213
-3 -3 8 76 181 223
-2 -3 8 241 244 230
-5 -2 8 241 244 230
-4 -2 8 241 244 230
1 1 8 241 244 230
2 1 8 37 79 142
3 1 8 37 79 142
4 1 8 15 134 213
5 1 8 76 181 223
6 1 8 241 244 230
3 2 8 241 244 230
4 2 8 241 244 230
-7 -2 9 241 244 230
-6 -2 9 37 79 142
-5 -2 9 76 181 223
-4 -2 9 37 79 142
-3 -2 9 76 181 223
-2 -2 9 241 244 230
1 2 9 241 244 230
2 2 9 15 134 213
3 2 9 76 181 223
4 2 9 37 79 142
5 2 9 76 181 223
6 2 9 241 244 230
-7 -1 10 241 244 230
-6 -1 10 37 79 142
-5 -1 10 37 79 142
-4 -1 10 15 134 213
-3 -1 10 37 79 142
-2 -1 10 241 244 230
1 3 10 241 244 230
2 3 10 37 79 142
3 3 10 37 79 142
4 3 10 15 134 213
5 3 10 37 79 142
6 3 10 241 244 230
-7 0 11 241 244 230
-6 0 11 15 134 213
-5 0 11 37 79 142
-4 0 11 37 79 142
-3 0 11 76 181 223
-2 0 11 241 244 230
1 4 11 241 244 230
2 4 11 15 134 213
3 4 11 37 79 142
4 4 11 37 79 142
5 4 11 76 181 223
6 4 11 241 244 230
