ply
format ascii 1.0
comment : MagicaVoxel @ Ephtracy
element vertex 395
property float x
property float y
property float z
property uchar red
property uchar green
property uchar blue
end_header
-6 -6 0 248 233 68
-5 -6 0 248 233 68
-4 -6 0 248 233 68
3 -6 0 236 243 178
-6 -5 0 248 233 68
-5 -5 0 236 243 178
-4 -5 0 243 239 127
2 -5 0 248 233 68
3 -5 0 236 243 178
4 -5 0 243 239 127
-5 -4 0 236 243 178
3 -4 0 236 243 178
4 -4 0 243 239 127
-1 -3 0 243 239 127
0 -3 0 248 233 68
-1 -2 0 236 243 178
0 -2 0 236 243 178
-4 -1 0 248 233 68
-3 -1 0 236 243 178
-2 -1 0 236 243 178
-1 -1 0 236 243 178
0 -1 0 243 239 127
2 -1 0 243 239 127
3 -1 0 243 239 127
4 -1 0 248 233 68
-4 0 0 248 233 68
-3 0 0 236 243 178
-2 0 0 236 243 178
-1 0 0 236 243 178
0 0 0 243 239 127
2 0 0 236 243 178
3 0 0 236 243 178
4 0 0 243 239 127
-4 1 0 248 233 68
-3 1 0 248 233 68
-2 1 0 248 233 68
-1 1 0 236 243 178
0 1 0 248 233 68
2 1 0 236 243 178
3 1 0 236 243 178
4 1 0 243 239 127
2 2 0 248 233 68
3 2 0 243 239 127
-2 3 0 243 239 127
-1 3 0 236 243 178
0 3 0 236 243 178
-2 4 0 248 233 68
-1 4 0 236 243 178
0 4 0 236 243 178
1 4 0 243 239 127
-2 5 0 243 239 127
-1 5 0 236 243 178
0 5 0 236 243 178
1 5 0 243 239 127
-2 6 0 243 239 127
-1 6 0 243 239 127
0 6 0 236 243 178
-6 -6 1 248 233 68
-5 -6 1 248 233 68
-4 -6 1 248 233 68
3 -6 1 243 239 127
-6 -5 1 243 239 127
-5 -5 1 243 239 127
-4 -5 1 236 243 178
2 -5 1 248 233 68
3 -5 1 236 243 178
4 -5 1 243 239 127
-5 -4 1 243 239 127
3 -4 1 236 243 178
4 -4 1 236 243 178
-2 -3 1 243 239 127
-1 -3 1 243 239 127
0 -3 1 248 233 68
-2 -2 1 243 239 127
-1 -2 1 236 243 178
0 -2 1 236 243 178
-3 -1 1 248 233 68
-2 -1 1 236 243 178
-1 -1 1 236 243 178
0 -1 1 236 243 178
2 -1 1 243 239 127
3 -1 1 243 239 127
4 -1 1 248 233 68
-4 0 1 236 243 178
-3 0 1 236 243 178
-2 0 1 236 243 178
-1 0 1 236 243 178
0 0 1 243 239 127
2 0 1 236 243 178
3 0 1 236 243 178
4 0 1 236 243 178
5 0 1 236 243 178
-4 1 1 243 239 127
-3 1 1 248 233 68
-2 1 1 248 233 68
-1 1 1 243 239 127
0 1 1 248 233 68
2 1 1 236 243 178
3 1 1 236 243 178
4 1 1 243 239 127
5 1 1 243 239 127
2 2 1 248 233 68
3 2 1 248 233 68
-2 3 1 248 233 68
-1 3 1 236 243 178
0 3 1 236 243 178
-2 4 1 248 233 68
-1 4 1 236 243 178
0 4 1 236 243 178
1 4 1 243 239 127
-2 5 1 248 233 68
-1 5 1 236 243 178
0 5 1 236 243 178
1 5 1 243 239 127
-2 6 1 243 239 127
-1 6 1 243 239 127
0 6 1 243 239 127
-5 -6 2 236 243 178
-4 -6 2 236 243 178
3 -6 2 243 239 127
-4 -5 2 236 243 178
-2 -5 2 248 233 68
-1 -5 2 248 233 68
2 -5 2 243 239 127
3 -5 2 236 243 178
4 -5 2 243 239 127
-2 -4 2 243 239 127
-1 -4 2 236 243 178
3 -4 2 236 243 178
4 -4 2 243 239 127
-2 -3 2 243 239 127
-1 -3 2 236 243 178
0 -3 2 243 239 127
-2 -2 2 248 233 68
-1 -2 2 236 243 178
0 -2 2 236 243 178
-2 -1 2 248 233 68
-1 -1 2 236 243 178
0 -1 2 236 243 178
2 -1 2 243 239 127
3 -1 2 243 239 127
4 -1 2 243 239 127
-6 0 2 206 96 200
-5 0 2 206 96 200
-4 0 2 243 239 127
-3 0 2 248 233 68
-2 0 2 236 243 178
-1 0 2 236 243 178
0 0 2 243 239 127
2 0 2 236 243 178
3 0 2 236 243 178
4 0 2 236 243 178
5 0 2 243 239 127
-4 1 2 243 239 127
-3 1 2 248 233 68
-2 1 2 248 233 68
-1 1 2 236 243 178
0 1 2 248 233 68
2 1 2 236 243 178
3 1 2 236 243 178
4 1 2 243 239 127
5 1 2 236 243 178
6 1 2 241 245 227
2 2 2 243 239 127
3 2 2 243 239 127
-2 3 2 236 243 178
-1 3 2 236 243 178
0 3 2 243 239 127
-2 4 2 248 233 68
-1 4 2 236 243 178
0 4 2 236 243 178
1 4 2 236 243 178
-2 5 2 236 243 178
-1 5 2 236 243 178
0 5 2 236 243 178
1 5 2 243 239 127
-2 6 2 236 243 178
-1 6 2 236 243 178
0 6 2 243 239 127
-4 -6 3 243 239 127
3 -6 3 236 243 178
-2 -5 3 243 239 127
-1 -5 3 243 239 127
2 -5 3 243 239 127
3 -5 3 236 243 178
4 -5 3 243 239 127
-2 -4 3 243 239 127
-1 -4 3 236 243 178
3 -4 3 236 243 178
4 -4 3 243 239 127
-1 -3 3 236 243 178
0 -3 3 236 243 178
-1 -2 3 243 239 127
0 -2 3 236 243 178
-2 -1 3 243 239 127
-1 -1 3 236 243 178
0 -1 3 236 243 178
2 -1 3 248 233 68
3 -1 3 236 243 178
4 -1 3 236 243 178
-7 0 3 206 96 200
-4 0 3 236 243 178
-3 0 3 243 239 127
-2 0 3 236 243 178
-1 0 3 236 243 178
0 0 3 243 239 127
2 0 3 236 243 178
3 0 3 236 243 178
4 0 3 243 239 127
-4 1 3 236 243 178
-3 1 3 243 239 127
-2 1 3 248 233 68
-1 1 3 236 243 178
0 1 3 236 243 178
2 1 3 236 243 178
3 1 3 236 243 178
4 1 3 243 239 127
6 1 3 236 243 178
2 2 3 243 239 127
3 2 3 236 243 178
-2 3 3 243 239 127
-1 3 3 236 243 178
0 3 3 243 239 127
-1 4 3 243 239 127
0 4 3 236 243 178
1 4 3 236 243 178
-1 5 3 236 243 178
0 5 3 236 243 178
-4 -6 4 241 245 227
3 -6 4 236 243 178
-1 -5 4 236 243 178
3 -5 4 236 243 178
4 -5 4 236 243 178
4 -4 4 236 243 178
-1 -3 4 243 239 127
0 -3 4 236 243 178
-1 -2 4 243 239 127
0 -2 4 236 243 178
-7 -1 4 134 60 157
-2 -1 4 243 239 127
-1 -1 4 236 243 178
0 -1 4 236 243 178
2 -1 4 236 243 178
3 -1 4 236 243 178
4 -1 4 236 243 178
-8 0 4 206 96 200
-7 0 4 206 96 200
-6 0 4 246 236 244
-4 0 4 236 243 178
-3 0 4 241 245 227
-2 0 4 236 243 178
-1 0 4 236 243 178
0 0 4 243 239 127
2 0 4 236 243 178
3 0 4 236 243 178
4 0 4 236 243 178
-7 1 4 246 236 244
-4 1 4 243 239 127
-3 1 4 243 239 127
-2 1 4 248 233 68
-1 1 4 243 239 127
0 1 4 236 243 178
2 1 4 236 243 178
3 1 4 236 243 178
4 1 4 236 243 178
2 2 4 236 243 178
3 2 4 243 239 127
-1 3 4 236 243 178
0 3 4 236 243 178
-1 4 4 236 243 178
0 4 4 236 243 178
3 -5 5 241 245 227
4 -5 5 248 233 68
-1 -3 5 241 245 227
0 -3 5 236 243 178
-1 -2 5 241 245 227
0 -2 5 236 243 178
-2 -1 5 243 239 127
-1 -1 5 236 243 178
0 -1 5 236 243 178
2 -1 5 236 243 178
3 -1 5 241 245 227
-7 0 5 206 96 200
-4 0 5 236 243 178
-3 0 5 236 243 178
-2 0 5 236 243 178
-1 0 5 236 243 178
0 0 5 236 243 178
2 0 5 236 243 178
3 0 5 241 245 227
-4 1 5 243 239 127
-3 1 5 236 243 178
-2 1 5 243 239 127
-1 1 5 236 243 178
0 1 5 236 243 178
2 1 5 236 243 178
3 1 5 236 243 178
-1 3 5 241 245 227
0 3 5 236 243 178
-1 4 5 241 245 227
0 4 5 241 245 227
4 -5 6 241 245 227
0 -3 6 236 243 178
-1 -2 6 241 245 227
0 -2 6 236 243 178
-2 -1 6 241 245 227
-1 -1 6 236 243 178
0 -1 6 236 243 178
-4 0 6 241 245 227
-3 0 6 243 239 127
-2 0 6 236 243 178
-1 0 6 236 243 178
0 0 6 236 243 178
2 0 6 236 243 178
3 0 6 241 245 227
-4 1 6 236 243 178
-3 1 6 243 239 127
-2 1 6 236 243 178
-1 1 6 243 239 127
0 1 6 241 245 227
2 1 6 236 243 178
3 1 6 241 245 227
0 3 6 241 245 227
-1 -3 7 200 86 232
-1 -2 7 206 96 200
-2 -1 7 236 243 178
-1 -1 7 241 245 227
0 -1 7 236 243 178
-2 0 7 236 243 178
-1 0 7 236 243 178
0 0 7 248 233 68
-4 1 7 241 245 227
-2 1 7 243 239 127
-1 1 7 248 233 68
0 1 7 236 243 178
2 1 7 236 243 178
-2 -5 8 134 60 157
-1 -5 8 200 86 232
0 -5 8 134 60 157
-2 -4 8 200 86 232
-1 -4 8 206 96 200
0 -4 8 200 86 232
-2 -3 8 200 86 232
-1 -3 8 206 96 200
0 -3 8 246 236 244
-2 -1 8 241 245 227
-1 -1 8 236 243 178
0 -1 8 236 243 178
-2 0 8 241 245 227
-1 0 8 236 243 178
0 0 8 241 245 227
-2 1 8 243 239 127
-1 1 8 236 243 178
0 1 8 236 243 178
2 1 8 241 245 227
-2 -5 9 134 60 157
-1 -5 9 246 236 244
-1 -4 9 246 236 244
0 -4 9 134 60 157
-2 -3 9 241 245 227
-1 -3 9 200 86 232
-2 -1 9 241 245 227
-1 -1 9 236 243 178
0 -1 9 241 245 227
-2 0 9 236 243 178
-1 0 9 236 243 178
0 0 9 236 243 178
-2 1 9 236 243 178
-1 1 9 236 243 178
0 1 9 241 245 227
0 2 9 206 96 200
0 3 9 200 86 232
-1 -4 10 200 86 232
-1 -1 10 241 245 227
0 -1 10 236 243 178
-2 0 10 236 243 178
-1 0 10 236 243 178
0 0 10 236 243 178
-1 1 10 236 243 178
0 1 10 241 245 227
0 3 10 200 86 232
-1 4 10 134 60 157
0 4 10 206 96 200
1 4 10 246 236 244
0 5 10 200 86 232
-1 0 11 236 243 178
0 0 11 241 245 227
-1 1 11 236 243 178
0 1 11 248 233 68
0 4 11 200 86 232
-1 0 12 241 245 227
0 0 12 236 243 178
0 1 12 241 245 227
0 1 13 241 245 227
0 1 14 241 245 227
