ply
format ascii 1.0
comment : MagicaVoxel @ Ephtracy
element vertex 156
property float x
property float y
property float z
property uchar red
property uchar green
property uchar blue
end_header
5 -7 0 174 147 73
6 -7 0 174 147 73
-5 -6 0 174 147 73
-5 -5 0 174 147 73
-5 -3 0 174 147 73
-4 -3 0 174 147 73
-3 -3 0 198 147 70
-2 -3 0 198 147 70
-5 -2 0 174 147 73
-4 -2 0 236 245 246
-3 -2 0 236 245 246
-2 -2 0 174 147 73
-1 -2 0 236 245 246
0 -2 0 236 245 246
3 -2 0 231 198 67
-6 -1 0 231 198 67
-5 -1 0 174 147 73
-4 -1 0 174 147 73
-3 -1 0 174 147 73
-2 -1 0 174 147 73
0 -1 0 236 245 246
2 -1 0 174 147 73
3 -1 0 231 198 67
4 -1 0 174 147 73
5 -1 0 198 147 70
0 0 0 236 245 246
1 0 0 236 245 246
2 0 0 174 147 73
3 0 0 236 245 246
4 0 0 236 245 246
5 0 0 174 147 73
2 1 0 174 147 73
3 1 0 174 147 73
4 1 0 174 147 73
5 1 0 174 147 73
-5 2 0 231 198 67
-5 3 0 174 147 73
-4 3 0 174 147 73
3 4 0 174 147 73
3 5 0 174 147 73
4 5 0 174 147 73
6 -7 1 231 198 67
-5 -6 1 231 198 67
-4 -2 1 236 245 246
-3 -2 1 236 245 246
3 0 1 236 245 246
4 0 1 236 245 246
-5 3 1 231 198 67
-4 -2 2 236 245 246
-3 -2 2 236 245 246
3 0 2 236 245 246
4 0 2 236 245 246
-4 -2 3 236 245 246
-3 -2 3 236 245 246
3 0 3 236 245 246
4 0 3 236 245 246
-4 -2 4 236 245 246
-3 -2 4 236 245 246
-4 -1 4 135 138 130
-3 -1 4 135 138 130
3 0 4 236 245 246
4 0 4 236 245 246
3 1 4 135 138 130
4 1 4 135 138 130
-4 -2 5 236 245 246
-3 -2 5 236 245 246
-4 -1 5 135 138 130
-3 -1 5 135 138 130
3 0 5 236 245 246
4 0 5 236 245 246
3 1 5 135 138 130
4 1 5 135 138 130
-6 -5 6 236 245 246
-5 -5 6 37 79 142
-4 -5 6 15 134 213
-3 -5 6 37 79 142
-2 -5 6 76 181 223
-1 -5 6 236 245 246
1 -3 6 236 245 246
2 -3 6 37 79 142
3 -3 6 15 134 213
4 -3 6 37 79 142
5 -3 6 76 181 223
6 -3 6 236 245 246
-4 -2 6 236 245 246
-3 -2 6 236 245 246
3 0 6 236 245 246
4 0 6 236 245 246
-6 -4 7 236 245 246
-5 -4 7 37 79 142
-4 -4 7 76 181 223
-3 -4 7 37 79 142
-2 -4 7 15 134 213
-1 -4 7 236 245 246
-4 -2 7 236 245 246
-3 -2 7 236 245 246
1 -2 7 236 245 246
2 -2 7 76 181 223
3 -2 7 15 134 213
4 -2 7 37 79 142
5 -2 7 15 134 213
6 -2 7 236 245 246
3 0 7 236 245 246
4 0 7 236 245 246
-6 -3 8 236 245 246
-5 -3 8 37 79 142
-4 -3 8 37 79 142
-3 -3 8 15 134 213
-2 -3 8 76 181 223
-1 -3 8 236 245 246
-4 -2 8 236 245 246
-3 -2 8 236 245 246
1 -1 8 236 245 246
2 -1 8 37 79 142
3 -1 8 37 79 142
4 -1 8 15 134 213
5 -1 8 76 181 223
6 -1 8 236 245 246
3 0 8 236 245 246
4 0 8 236 245 246
-6 -2 9 236 245 246
-5 -2 9 37 79 142
-4 -2 9 76 181 223
-3 -2 9 37 79 142
-2 -2 9 76 181 223
-1 -2 9 236 245 246
1 0 9 236 245 246
2 0 9 15 134 213
3 0 9 76 181 223
4 0 9 37 79 142
5 0 9 76 181 223
6 0 9 236 245 246
-6 -1 10 236 245 246
-5 -1 10 37 79 142
-4 -1 10 37 79 142
-3 -1 10 15 134 213
-2 -1 10 37 79 142
-1 -1 10 236 245 246
1 1 10 236 245 246
2 1 10 37 79 142
3 1 10 37 79 142
4 1 10 15 134 213
5 1 10 37 79 142
6 1 10 236 245 246
-6 0 11 236 245 246
-5 0 11 15 134 213
-4 0 11 37 79 142
-3 0 11 37 79 142
-2 0 11 76 181 223
-1 0 11 236 245 246
1 2 11 236 245 246
2 2 11 15 134 213
3 2 11 37 79 142
4 2 11 37 79 142
5 2 11 76 181 223
6 2 11 236 245 246
