ply
format ascii 1.0
comment : MagicaVoxel @ Ephtracy
element vertex 240
property float x
property float y
property float z
property uchar red
property uchar green
property uchar blue
end_header
-1 -7 0 55 101 195
-7 -5 0 206 96 200
4 -5 0 217 203 181
-5 -4 0 217 203 181
-1 -4 0 217 203 181
2 -4 0 206 96 200
4 -3 0 206 96 200
0 0 0 217 203 181
5 0 0 151 112 58
6 0 0 151 112 58
5 1 0 198 147 70
6 1 0 151 112 58
-6 2 0 55 101 195
-3 3 0 217 203 181
6 3 0 76 181 223
-6 4 0 76 181 223
3 4 0 217 203 181
-4 5 0 206 96 200
4 5 0 206 96 200
1 6 0 55 101 195
4 -5 1 217 203 181
-5 -4 1 217 203 181
-1 -4 1 217 203 181
0 0 1 217 203 181
5 0 1 206 96 200
5 1 1 198 147 70
6 1 1 76 181 223
-3 3 1 217 203 181
3 4 1 217 203 181
-2 -5 2 55 101 195
-1 -5 2 55 101 195
0 -5 2 246 236 244
4 -5 2 217 203 181
-5 -4 2 217 203 181
-2 -4 2 76 181 223
-1 -4 2 236 245 246
0 -4 2 76 181 223
-2 -3 2 246 236 244
-1 -3 2 55 101 195
0 -3 2 76 181 223
-1 -1 2 55 101 195
0 -1 2 76 181 223
1 -1 2 55 101 195
-1 0 2 76 181 223
0 0 2 217 203 181
1 0 2 246 236 244
-1 1 2 246 236 244
0 1 2 76 181 223
1 1 2 76 181 223
5 1 2 198 147 70
-3 3 2 217 203 181
3 4 2 217 203 181
2 -7 3 206 96 200
3 -7 3 134 60 157
4 -7 3 246 236 244
5 -7 3 134 60 157
6 -7 3 206 96 200
2 -6 3 134 60 157
6 -6 3 134 60 157
-1 -5 3 76 181 223
2 -5 3 134 60 157
4 -5 3 217 203 181
6 -5 3 246 236 244
-5 -4 3 217 203 181
-2 -4 3 76 181 223
-1 -4 3 246 236 244
0 -4 3 55 101 195
2 -4 3 206 96 200
6 -4 3 134 60 157
-1 -3 3 76 181 223
2 -3 3 134 60 157
3 -3 3 206 96 200
4 -3 3 134 60 157
5 -3 3 134 60 157
6 -3 3 206 96 200
0 -1 3 246 236 244
-1 0 3 76 181 223
0 0 3 76 181 223
1 0 3 76 181 223
0 1 3 55 101 195
5 1 3 255 225 0
-3 3 3 217 203 181
3 4 3 217 203 181
3 -7 4 206 96 200
4 -7 4 134 60 157
5 -7 4 206 96 200
-7 -6 4 134 60 157
-6 -6 4 134 60 157
-5 -6 4 246 236 244
-4 -6 4 206 96 200
-3 -6 4 134 60 157
2 -6 4 134 60 157
3 -6 4 246 236 244
5 -6 4 246 236 244
6 -6 4 206 96 200
-7 -5 4 134 60 157
-3 -5 4 206 96 200
2 -5 4 206 96 200
4 -5 4 217 203 181
6 -5 4 134 60 157
-7 -4 4 206 96 200
-5 -4 4 217 203 181
-3 -4 4 134 60 157
2 -4 4 206 96 200
3 -4 4 134 60 157
5 -4 4 206 96 200
6 -4 4 206 96 200
-7 -3 4 134 60 157
-3 -3 4 206 96 200
3 -3 4 206 96 200
4 -3 4 134 60 157
5 -3 4 206 96 200
-7 -2 4 206 96 200
-6 -2 4 246 236 244
-5 -2 4 134 60 157
-4 -2 4 206 96 200
-3 -2 4 134 60 157
1 2 4 134 60 157
2 2 4 206 96 200
3 2 4 246 236 244
4 2 4 134 60 157
5 2 4 206 96 200
-3 3 4 217 203 181
1 3 4 206 96 200
5 3 4 134 60 157
1 4 4 134 60 157
3 4 4 217 203 181
5 4 4 134 60 157
1 5 4 206 96 200
5 5 4 206 96 200
1 6 4 134 60 157
2 6 4 134 60 157
3 6 4 246 236 244
4 6 4 134 60 157
5 6 4 206 96 200
-6 -6 5 206 96 200
-5 -6 5 134 60 157
-4 -6 5 134 60 157
4 -6 5 206 96 200
-7 -5 5 206 96 200
-6 -5 5 246 236 244
-4 -5 5 206 96 200
-3 -5 5 246 236 244
3 -5 5 206 96 200
4 -5 5 206 96 200
5 -5 5 206 96 200
-7 -4 5 134 60 157
-5 -4 5 217 203 181
-3 -4 5 206 96 200
4 -4 5 246 236 244
-7 -3 5 206 96 200
-6 -3 5 134 60 157
-4 -3 5 246 236 244
-3 -3 5 134 60 157
-6 -2 5 134 60 157
-5 -2 5 206 96 200
-4 -2 5 206 96 200
-5 1 5 55 101 195
-4 1 5 55 101 195
-3 1 5 76 181 223
-2 1 5 55 101 195
-1 1 5 55 101 195
-5 2 5 76 181 223
-1 2 5 55 101 195
2 2 5 206 96 200
3 2 5 134 60 157
4 2 5 206 96 200
-5 3 5 55 101 195
-3 3 5 217 203 181
-1 3 5 76 181 223
1 3 5 134 60 157
2 3 5 206 96 200
4 3 5 134 60 157
5 3 5 246 236 244
-5 4 5 55 101 195
-1 4 5 55 101 195
1 4 5 206 96 200
3 4 5 217 203 181
5 4 5 206 96 200
-5 5 5 55 101 195
-4 5 5 55 101 195
-3 5 5 76 181 223
-2 5 5 55 101 195
-1 5 5 55 101 195
1 5 5 246 236 244
2 5 5 206 96 200
4 5 5 246 236 244
5 5 5 134 60 157
2 6 5 206 96 200
3 6 5 134 60 157
4 6 5 206 96 200
-5 -5 6 206 96 200
-6 -4 6 206 96 200
-5 -4 6 206 96 200
-4 -4 6 206 96 200
-5 -3 6 206 96 200
-5 1 6 76 181 223
-4 1 6 76 181 223
-3 1 6 76 181 223
-2 1 6 246 236 244
-1 1 6 76 181 223
-5 2 6 55 101 195
-1 2 6 246 236 244
-5 3 6 246 236 244
-3 3 6 217 203 181
-1 3 6 55 101 195
3 3 6 206 96 200
-5 4 6 55 101 195
-1 4 6 76 181 223
2 4 6 206 96 200
3 4 6 246 236 244
4 4 6 206 96 200
-5 5 6 76 181 223
-4 5 6 246 236 244
-3 5 6 55 101 195
-2 5 6 76 181 223
-1 5 6 55 101 195
3 5 6 206 96 200
-4 1 7 76 181 223
-3 1 7 246 236 244
-2 1 7 76 181 223
-5 2 7 76 181 223
-4 2 7 55 101 195
-2 2 7 55 101 195
-1 2 7 55 101 195
-5 3 7 55 101 195
-3 3 7 217 203 181
-1 3 7 76 181 223
-5 4 7 76 181 223
-4 4 7 246 236 244
-2 4 7 55 101 195
-1 4 7 76 181 223
-4 5 7 55 101 195
-3 5 7 76 181 223
-2 5 7 76 181 223
-3 2 8 76 181 223
-4 3 8 76 181 223
-3 3 8 246 236 244
-2 3 8 76 181 223
-3 4 8 76 181 223
