ply
format ascii 1.0
comment : MagicaVoxel @ Ephtracy
element vertex 886
property float x
property float y
property float z
property uchar red
property uchar green
property uchar blue
end_header
5 -8 0 228 231 218
-5 -7 0 241 244 230
-3 -7 0 241 244 230
5 -7 0 228 231 218
-6 -6 0 241 244 230
-4 -6 0 54 54 54
-2 -6 0 241 244 230
-1 -6 0 241 244 230
0 -6 0 241 244 230
1 -6 0 241 244 230
2 -6 0 241 244 230
3 -6 0 241 244 230
4 -6 0 241 244 230
5 -6 0 241 244 230
-6 -5 0 241 244 230
-2 -5 0 241 244 230
-1 -5 0 92 206 44
0 -5 0 92 206 44
1 -5 0 92 206 44
2 -5 0 92 206 44
3 -5 0 92 206 44
4 -5 0 56 139 48
5 -5 0 241 244 230
-6 -4 0 241 244 230
-2 -4 0 241 244 230
-1 -4 0 92 206 44
0 -4 0 92 206 44
1 -4 0 92 206 44
2 -4 0 92 206 44
3 -4 0 172 255 104
4 -4 0 56 139 48
5 -4 0 241 244 230
-6 -3 0 241 244 230
-2 -3 0 241 244 230
-1 -3 0 92 206 44
0 -3 0 92 206 44
1 -3 0 92 206 44
2 -3 0 92 206 44
3 -3 0 56 139 48
4 -3 0 172 255 104
5 -3 0 241 244 230
-6 -2 0 241 244 230
-2 -2 0 241 244 230
-1 -2 0 92 206 44
0 -2 0 92 206 44
1 -2 0 92 206 44
2 -2 0 92 206 44
3 -2 0 92 206 44
4 -2 0 56 139 48
5 -2 0 241 244 230
-6 -1 0 241 244 230
-2 -1 0 241 244 230
-1 -1 0 241 244 230
0 -1 0 241 244 230
1 -1 0 241 244 230
2 -1 0 241 244 230
3 -1 0 241 244 230
4 -1 0 241 244 230
5 -1 0 241 244 230
-6 0 0 241 244 230
5 0 0 241 244 230
-6 1 0 241 244 230
5 1 0 241 244 230
-6 2 0 241 244 230
5 2 0 241 244 230
-6 3 0 241 244 230
5 3 0 241 244 230
-6 4 0 241 244 230
5 4 0 241 244 230
-6 5 0 241 244 230
-5 5 0 241 244 230
-4 5 0 241 244 230
-3 5 0 241 244 230
-2 5 0 241 244 230
-1 5 0 241 244 230
0 5 0 241 244 230
1 5 0 241 244 230
2 5 0 241 244 230
3 5 0 241 244 230
4 5 0 241 244 230
5 5 0 241 244 230
-5 -7 1 241 244 230
-3 -7 1 241 244 230
-6 -6 1 241 244 230
-4 -6 1 54 54 54
-2 -6 1 241 244 230
-6 -5 1 228 231 218
-2 -5 1 228 231 218
-1 -5 1 172 255 104
0 -5 1 172 255 104
1 -5 1 56 139 48
2 -5 1 92 206 44
-6 -4 1 228 231 218
-2 -4 1 228 231 218
-1 -4 1 92 206 44
0 -4 1 92 206 44
1 -4 1 92 206 44
2 -4 1 172 255 104
-6 -3 1 228 231 218
-2 -3 1 228 231 218
-1 -3 1 92 206 44
0 -3 1 92 206 44
1 -3 1 92 206 44
2 -3 1 172 255 104
-6 -2 1 228 231 218
-2 -2 1 228 231 218
-1 -2 1 92 206 44
0 -2 1 92 206 44
1 -2 1 92 206 44
2 -2 1 56 139 48
3 -2 1 172 255 104
-6 -1 1 228 231 218
-2 -1 1 228 231 218
-1 -1 1 228 231 218
0 -1 1 228 231 218
1 -1 1 228 231 218
2 -1 1 228 231 218
3 -1 1 228 231 218
4 -1 1 228 231 218
5 -1 1 241 244 230
-6 0 1 228 231 218
5 0 1 228 231 218
-6 1 1 228 231 218
5 1 1 228 231 218
-6 2 1 228 231 218
5 2 1 228 231 218
-6 3 1 228 231 218
5 3 1 228 231 218
-6 4 1 228 231 218
5 4 1 228 231 218
-6 5 1 241 244 230
-5 5 1 228 231 218
-4 5 1 228 231 218
-3 5 1 228 231 218
-2 5 1 228 231 218
-1 5 1 228 231 218
0 5 1 228 231 218
1 5 1 228 231 218
2 5 1 228 231 218
3 5 1 228 231 218
4 5 1 228 231 218
5 5 1 241 244 230
-5 -7 2 241 244 230
-4 -7 2 241 244 230
-3 -7 2 241 244 230
-6 -6 2 241 244 230
-2 -6 2 241 244 230
-6 -5 2 228 231 218
-2 -5 2 228 231 218
-6 -4 2 228 231 218
-2 -4 2 228 231 218
-1 -4 2 92 206 44
0 -4 2 172 255 104
1 -4 2 172 255 104
-6 -3 2 228 231 218
-2 -3 2 228 231 218
-1 -3 2 92 206 44
0 -3 2 92 206 44
1 -3 2 172 255 104
-6 -2 2 228 231 218
-2 -2 2 228 231 218
-1 -2 2 92 206 44
0 -2 2 92 206 44
1 -2 2 172 255 104
-6 -1 2 228 231 218
-2 -1 2 228 231 218
-1 -1 2 228 231 218
0 -1 2 228 231 218
1 -1 2 228 231 218
2 -1 2 228 231 218
3 -1 2 228 231 218
4 -1 2 228 231 218
5 -1 2 241 244 230
-6 0 2 228 231 218
5 0 2 228 231 218
-6 1 2 228 231 218
5 1 2 228 231 218
-6 2 2 228 231 218
5 2 2 228 231 218
-6 3 2 228 231 218
5 3 2 228 231 218
-6 4 2 228 231 218
5 4 2 228 231 218
-6 5 2 241 244 230
-5 5 2 228 231 218
-4 5 2 228 231 218
-3 5 2 163 240 245
-2 5 2 228 231 218
-1 5 2 228 231 218
0 5 2 228 231 218
1 5 2 228 231 218
2 5 2 163 240 245
3 5 2 228 231 218
4 5 2 228 231 218
5 5 2 241 244 230
-6 -6 3 241 244 230
-5 -6 3 228 231 218
-4 -6 3 228 231 218
-3 -6 3 228 231 218
-2 -6 3 241 244 230
-6 -5 3 228 231 218
-2 -5 3 228 231 218
-6 -4 3 228 231 218
-2 -4 3 228 231 218
-6 -3 3 228 231 218
-2 -3 3 228 231 218
-1 -3 3 172 255 104
-6 -2 3 228 231 218
-2 -2 3 228 231 218
-1 -2 3 56 139 48
0 -2 3 172 255 104
-6 -1 3 228 231 218
-2 -1 3 228 231 218
-1 -1 3 228 231 218
0 -1 3 228 231 218
1 -1 3 228 231 218
2 -1 3 228 231 218
3 -1 3 228 231 218
4 -1 3 228 231 218
5 -1 3 241 244 230
-6 0 3 228 231 218
5 0 3 228 231 218
-6 1 3 228 231 218
5 1 3 228 231 218
-6 2 3 228 231 218
5 2 3 228 231 218
-6 3 3 228 231 218
5 3 3 228 231 218
-6 4 3 228 231 218
5 4 3 228 231 218
-6 5 3 241 244 230
-5 5 3 228 231 218
-4 5 3 228 231 218
-3 5 3 104 216 245
-2 5 3 228 231 218
-1 5 3 228 231 218
0 5 3 228 231 218
1 5 3 228 231 218
2 5 3 104 216 245
3 5 3 228 231 218
4 5 3 228 231 218
5 5 3 241 244 230
-6 -6 4 241 244 230
-5 -6 4 228 231 218
-4 -6 4 228 231 218
-3 -6 4 228 231 218
-2 -6 4 241 244 230
-6 -5 4 228 231 218
-2 -5 4 228 231 218
-6 -4 4 228 231 218
-2 -4 4 228 231 218
-6 -3 4 228 231 218
-2 -3 4 228 231 218
-6 -2 4 228 231 218
-2 -2 4 228 231 218
-6 -1 4 228 231 218
-2 -1 4 228 231 218
-1 -1 4 228 231 218
0 -1 4 228 231 218
1 -1 4 228 231 218
2 -1 4 228 231 218
3 -1 4 228 231 218
4 -1 4 228 231 218
5 -1 4 241 244 230
-6 0 4 228 231 218
5 0 4 228 231 218
-6 1 4 228 231 218
5 1 4 228 231 218
-6 2 4 228 231 218
5 2 4 228 231 218
-6 3 4 228 231 218
5 3 4 228 231 218
-6 4 4 228 231 218
5 4 4 228 231 218
-6 5 4 241 244 230
-5 5 4 228 231 218
-4 5 4 228 231 218
-3 5 4 228 231 218
-2 5 4 228 231 218
-1 5 4 228 231 218
0 5 4 228 231 218
1 5 4 228 231 218
2 5 4 228 231 218
3 5 4 228 231 218
4 5 4 228 231 218
5 5 4 241 244 230
-3 6 4 241 244 230
2 6 4 241 244 230
-6 -6 5 241 244 230
-5 -6 5 228 231 218
-4 -6 5 228 231 218
-3 -6 5 228 231 218
-2 -6 5 241 244 230
-6 -5 5 228 231 218
-2 -5 5 228 231 218
-6 -4 5 228 231 218
-2 -4 5 228 231 218
-6 -3 5 228 231 218
-2 -3 5 228 231 218
-6 -2 5 228 231 218
-2 -2 5 228 231 218
-6 -1 5 228 231 218
-2 -1 5 228 231 218
-1 -1 5 228 231 218
0 -1 5 228 231 218
1 -1 5 228 231 218
2 -1 5 228 231 218
3 -1 5 228 231 218
4 -1 5 228 231 218
5 -1 5 241 244 230
-6 0 5 228 231 218
5 0 5 228 231 218
-6 1 5 228 231 218
5 1 5 228 231 218
-6 2 5 228 231 218
5 2 5 228 231 218
-6 3 5 228 231 218
5 3 5 228 231 218
-6 4 5 228 231 218
5 4 5 228 231 218
-6 5 5 241 244 230
-5 5 5 228 231 218
-4 5 5 228 231 218
-3 5 5 228 231 218
-2 5 5 228 231 218
-1 5 5 228 231 218
0 5 5 228 231 218
1 5 5 228 231 218
2 5 5 228 231 218
3 5 5 228 231 218
4 5 5 228 231 218
5 5 5 241 244 230
-6 -6 6 241 244 230
-5 -6 6 228 231 218
-4 -6 6 228 231 218
-3 -6 6 228 231 218
-2 -6 6 241 244 230
-6 -5 6 228 231 218
-2 -5 6 228 231 218
-6 -4 6 228 231 218
-2 -4 6 228 231 218
-6 -3 6 228 231 218
-2 -3 6 228 231 218
-6 -2 6 228 231 218
-2 -2 6 228 231 218
-6 -1 6 228 231 218
-2 -1 6 228 231 218
-1 -1 6 228 231 218
0 -1 6 228 231 218
1 -1 6 228 231 218
2 -1 6 228 231 218
3 -1 6 228 231 218
4 -1 6 228 231 218
5 -1 6 241 244 230
-6 0 6 228 231 218
5 0 6 228 231 218
-6 1 6 228 231 218
5 1 6 228 231 218
-6 2 6 228 231 218
5 2 6 228 231 218
-6 3 6 228 231 218
5 3 6 228 231 218
-6 4 6 228 231 218
5 4 6 228 231 218
-6 5 6 241 244 230
-5 5 6 228 231 218
-4 5 6 228 231 218
-3 5 6 228 231 218
-2 5 6 228 231 218
-1 5 6 228 231 218
0 5 6 228 231 218
1 5 6 228 231 218
2 5 6 228 231 218
3 5 6 228 231 218
4 5 6 228 231 218
5 5 6 241 244 230
-6 -6 7 241 244 230
-5 -6 7 241 244 230
-4 -6 7 241 244 230
-3 -6 7 241 244 230
-2 -6 7 241 244 230
-1 -6 7 241 244 230
0 -6 7 241 244 230
1 -6 7 241 244 230
2 -6 7 241 244 230
3 -6 7 241 244 230
4 -6 7 241 244 230
5 -6 7 241 244 230
-6 -5 7 241 244 230
-5 -5 7 241 244 230
-4 -5 7 241 244 230
-3 -5 7 241 244 230
-2 -5 7 241 244 230
-1 -5 7 241 244 230
0 -5 7 241 244 230
1 -5 7 241 244 230
2 -5 7 241 244 230
3 -5 7 241 244 230
4 -5 7 241 244 230
5 -5 7 241 244 230
-6 -4 7 241 244 230
-5 -4 7 241 244 230
-4 -4 7 241 244 230
-3 -4 7 241 244 230
-2 -4 7 241 244 230
-1 -4 7 241 244 230
0 -4 7 241 244 230
1 -4 7 241 244 230
2 -4 7 241 244 230
3 -4 7 241 244 230
4 -4 7 241 244 230
5 -4 7 241 244 230
-6 -3 7 241 244 230
-5 -3 7 241 244 230
-4 -3 7 241 244 230
-3 -3 7 241 244 230
-2 -3 7 241 244 230
-1 -3 7 241 244 230
0 -3 7 241 244 230
1 -3 7 241 244 230
2 -3 7 241 244 230
3 -3 7 241 244 230
4 -3 7 241 244 230
5 -3 7 241 244 230
-6 -2 7 241 244 230
-5 -2 7 241 244 230
-4 -2 7 241 244 230
-3 -2 7 241 244 230
-2 -2 7 241 244 230
-1 -2 7 241 244 230
0 -2 7 241 244 230
1 -2 7 241 244 230
2 -2 7 241 244 230
3 -2 7 241 244 230
4 -2 7 241 244 230
5 -2 7 241 244 230
-6 -1 7 241 244 230
-5 -1 7 241 244 230
-4 -1 7 241 244 230
-3 -1 7 241 244 230
-2 -1 7 241 244 230
-1 -1 7 241 244 230
0 -1 7 241 244 230
1 -1 7 241 244 230
2 -1 7 241 244 230
3 -1 7 241 244 230
4 -1 7 241 244 230
5 -1 7 241 244 230
-6 0 7 241 244 230
5 0 7 241 244 230
-6 1 7 241 244 230
5 1 7 241 244 230
-6 2 7 241 244 230
5 2 7 241 244 230
-6 3 7 241 244 230
5 3 7 241 244 230
-6 4 7 241 244 230
5 4 7 241 244 230
-6 5 7 241 244 230
-5 5 7 241 244 230
-4 5 7 241 244 230
-3 5 7 241 244 230
-2 5 7 241 244 230
-1 5 7 241 244 230
0 5 7 241 244 230
1 5 7 241 244 230
2 5 7 241 244 230
3 5 7 241 244 230
4 5 7 241 244 230
5 5 7 241 244 230
-6 -6 8 241 244 230
-5 -6 8 241 244 230
-4 -6 8 241 244 230
-3 -6 8 241 244 230
-2 -6 8 241 244 230
-1 -6 8 241 244 230
0 -6 8 241 244 230
1 -6 8 241 244 230
2 -6 8 241 244 230
3 -6 8 241 244 230
4 -6 8 241 244 230
5 -6 8 241 244 230
-6 -5 8 241 244 230
-5 -5 8 92 206 44
-4 -5 8 172 255 104
-1 -5 8 172 255 104
0 -5 8 92 206 44
4 -5 8 172 255 104
5 -5 8 241 244 230
-6 -4 8 241 244 230
-5 -4 8 92 206 44
3 -4 8 56 139 48
5 -4 8 241 244 230
-6 -3 8 241 244 230
-1 -3 8 241 244 230
0 -3 8 241 244 230
1 -3 8 241 244 230
2 -3 8 241 244 230
3 -3 8 241 244 230
4 -3 8 241 244 230
5 -3 8 241 244 230
-6 -2 8 241 244 230
-4 -2 8 241 244 230
-2 -2 8 241 244 230
-1 -2 8 92 206 44
0 -2 8 92 206 44
1 -2 8 92 206 44
2 -2 8 92 206 44
3 -2 8 92 206 44
4 -2 8 92 206 44
5 -2 8 241 244 230
-6 -1 8 241 244 230
-5 -1 8 228 231 218
-4 -1 8 228 231 218
-3 -1 8 54 54 54
-2 -1 8 228 231 218
-1 -1 8 228 231 218
0 -1 8 228 231 218
1 -1 8 228 231 218
2 -1 8 228 231 218
3 -1 8 228 231 218
4 -1 8 228 231 218
5 -1 8 241 244 230
-6 0 8 228 231 218
5 0 8 228 231 218
-6 1 8 228 231 218
5 1 8 228 231 218
-6 2 8 228 231 218
5 2 8 228 231 218
-6 3 8 228 231 218
5 3 8 228 231 218
-6 4 8 228 231 218
5 4 8 228 231 218
-6 5 8 241 244 230
-5 5 8 228 231 218
-4 5 8 228 231 218
-3 5 8 228 231 218
-2 5 8 228 231 218
-1 5 8 228 231 218
0 5 8 228 231 218
1 5 8 228 231 218
2 5 8 228 231 218
3 5 8 228 231 218
4 5 8 228 231 218
5 5 8 241 244 230
-4 -2 9 241 244 230
-2 -2 9 241 244 230
-1 -2 9 56 139 48
1 -2 9 56 139 48
3 -2 9 56 139 48
4 -2 9 92 206 44
-6 -1 9 241 244 230
-5 -1 9 228 231 218
-4 -1 9 228 231 218
-3 -1 9 54 54 54
-2 -1 9 228 231 218
-1 -1 9 228 231 218
0 -1 9 163 240 245
1 -1 9 228 231 218
2 -1 9 228 231 218
3 -1 9 163 240 245
4 -1 9 228 231 218
5 -1 9 241 244 230
-6 0 9 228 231 218
5 0 9 228 231 218
-6 1 9 228 231 218
5 1 9 228 231 218
-6 2 9 228 231 218
5 2 9 228 231 218
-6 3 9 228 231 218
5 3 9 228 231 218
-6 4 9 228 231 218
5 4 9 228 231 218
-6 5 9 241 244 230
-5 5 9 228 231 218
-4 5 9 228 231 218
-3 5 9 228 231 218
-2 5 9 228 231 218
-1 5 9 228 231 218
0 5 9 228 231 218
1 5 9 228 231 218
2 5 9 228 231 218
3 5 9 228 231 218
4 5 9 228 231 218
5 5 9 241 244 230
-4 -2 10 241 244 230
-3 -2 10 241 244 230
-2 -2 10 241 244 230
1 -2 10 172 255 104
4 -2 10 92 206 44
-6 -1 10 241 244 230
-5 -1 10 228 231 218
-4 -1 10 228 231 218
-3 -1 10 228 231 218
-2 -1 10 228 231 218
-1 -1 10 228 231 218
0 -1 10 163 240 245
1 -1 10 228 231 218
2 -1 10 228 231 218
3 -1 10 163 240 245
4 -1 10 228 231 218
5 -1 10 241 244 230
-6 0 10 228 231 218
5 0 10 228 231 218
-6 1 10 163 240 245
5 1 10 163 240 245
-6 2 10 228 231 218
5 2 10 228 231 218
-6 3 10 163 240 245
5 3 10 163 240 245
-6 4 10 228 231 218
5 4 10 228 231 218
-6 5 10 241 244 230
-5 5 10 228 231 218
-4 5 10 163 240 245
-3 5 10 228 231 218
-2 5 10 163 240 245
-1 5 10 228 231 218
0 5 10 228 231 218
1 5 10 163 240 245
2 5 10 228 231 218
3 5 10 163 240 245
4 5 10 228 231 218
5 5 10 241 244 230
-6 -1 11 241 244 230
-5 -1 11 228 231 218
-4 -1 11 228 231 218
-3 -1 11 228 231 218
-2 -1 11 228 231 218
-1 -1 11 228 231 218
0 -1 11 104 216 245
1 -1 11 228 231 218
2 -1 11 228 231 218
3 -1 11 104 216 245
4 -1 11 228 231 218
5 -1 11 241 244 230
-6 0 11 228 231 218
5 0 11 228 231 218
-6 1 11 104 216 245
5 1 11 104 216 245
-6 2 11 228 231 218
5 2 11 228 231 218
-6 3 11 104 216 245
5 3 11 104 216 245
-6 4 11 228 231 218
5 4 11 228 231 218
-6 5 11 241 244 230
-5 5 11 228 231 218
-4 5 11 104 216 245
-3 5 11 228 231 218
-2 5 11 104 216 245
-1 5 11 228 231 218
0 5 11 228 231 218
1 5 11 104 216 245
2 5 11 228 231 218
3 5 11 104 216 245
4 5 11 228 231 218
5 5 11 241 244 230
0 -2 12 241 244 230
3 -2 12 241 244 230
-6 -1 12 241 244 230
-5 -1 12 228 231 218
-4 -1 12 228 231 218
-3 -1 12 228 231 218
-2 -1 12 228 231 218
-1 -1 12 228 231 218
0 -1 12 228 231 218
1 -1 12 228 231 218
2 -1 12 228 231 218
3 -1 12 228 231 218
4 -1 12 228 231 218
5 -1 12 241 244 230
-6 0 12 228 231 218
5 0 12 228 231 218
-7 1 12 241 244 230
-6 1 12 228 231 218
5 1 12 228 231 218
6 1 12 241 244 230
-6 2 12 228 231 218
5 2 12 228 231 218
-7 3 12 241 244 230
-6 3 12 228 231 218
5 3 12 228 231 218
6 3 12 241 244 230
-6 4 12 228 231 218
5 4 12 228 231 218
-6 5 12 241 244 230
-5 5 12 228 231 218
-4 5 12 228 231 218
-3 5 12 228 231 218
-2 5 12 228 231 218
-1 5 12 228 231 218
0 5 12 228 231 218
1 5 12 228 231 218
2 5 12 228 231 218
3 5 12 228 231 218
4 5 12 228 231 218
5 5 12 241 244 230
-4 6 12 241 244 230
-2 6 12 241 244 230
1 6 12 241 244 230
3 6 12 241 244 230
-6 -1 13 241 244 230
-5 -1 13 228 231 218
-4 -1 13 228 231 218
-3 -1 13 228 231 218
-2 -1 13 228 231 218
-1 -1 13 228 231 218
0 -1 13 228 231 218
1 -1 13 228 231 218
2 -1 13 228 231 218
3 -1 13 228 231 218
4 -1 13 228 231 218
5 -1 13 241 244 230
-6 0 13 228 231 218
5 0 13 228 231 218
-6 1 13 228 231 218
5 1 13 228 231 218
-6 2 13 228 231 218
5 2 13 228 231 218
-6 3 13 228 231 218
5 3 13 228 231 218
-6 4 13 228 231 218
5 4 13 228 231 218
-6 5 13 241 244 230
-5 5 13 228 231 218
-4 5 13 228 231 218
-3 5 13 228 231 218
-2 5 13 228 231 218
-1 5 13 228 231 218
0 5 13 228 231 218
1 5 13 228 231 218
2 5 13 228 231 218
3 5 13 228 231 218
4 5 13 228 231 218
5 5 13 241 244 230
-6 -1 14 241 244 230
-5 -1 14 241 244 230
-4 -1 14 241 244 230
-3 -1 14 241 244 230
-2 -1 14 241 244 230
-1 -1 14 241 244 230
0 -1 14 241 244 230
1 -1 14 241 244 230
2 -1 14 241 244 230
3 -1 14 241 244 230
4 -1 14 241 244 230
5 -1 14 241 244 230
-6 0 14 241 244 230
-5 0 14 241 244 230
-4 0 14 241 244 230
-3 0 14 241 244 230
-2 0 14 241 244 230
-1 0 14 241 244 230
0 0 14 241 244 230
1 0 14 241 244 230
2 0 14 56 139 48
3 0 14 56 139 48
4 0 14 92 206 44
5 0 14 241 244 230
-6 1 14 241 244 230
-5 1 14 241 244 230
-4 1 14 241 244 230
-3 1 14 241 244 230
-2 1 14 241 244 230
-1 1 14 241 244 230
0 1 14 241 244 230
1 1 14 241 244 230
2 1 14 92 206 44
3 1 14 56 139 48
4 1 14 92 206 44
5 1 14 241 244 230
-6 2 14 241 244 230
-5 2 14 56 139 48
-4 2 14 92 206 44
-3 2 14 92 206 44
-2 2 14 241 244 230
-1 2 14 241 244 230
0 2 14 241 244 230
1 2 14 241 244 230
2 2 14 56 139 48
3 2 14 92 206 44
4 2 14 56 139 48
5 2 14 241 244 230
-6 3 14 241 244 230
-5 3 14 56 139 48
-4 3 14 56 139 48
-3 3 14 92 206 44
-2 3 14 241 244 230
-1 3 14 241 244 230
0 3 14 241 244 230
1 3 14 241 244 230
2 3 14 241 244 230
3 3 14 241 244 230
4 3 14 241 244 230
5 3 14 241 244 230
-6 4 14 241 244 230
-5 4 14 56 139 48
-4 4 14 56 139 48
-3 4 14 56 139 48
-2 4 14 241 244 230
-1 4 14 241 244 230
0 4 14 241 244 230
1 4 14 241 244 230
2 4 14 241 244 230
3 4 14 241 244 230
4 4 14 241 244 230
5 4 14 241 244 230
-6 5 14 241 244 230
-5 5 14 241 244 230
-4 5 14 241 244 230
-3 5 14 241 244 230
-2 5 14 241 244 230
-1 5 14 241 244 230
0 5 14 241 244 230
1 5 14 241 244 230
2 5 14 241 244 230
3 5 14 241 244 230
4 5 14 241 244 230
5 5 14 241 244 230
-6 -1 15 241 244 230
-5 -1 15 241 244 230
-4 -1 15 241 244 230
-3 -1 15 241 244 230
-2 -1 15 241 244 230
-1 -1 15 241 244 230
0 -1 15 241 244 230
1 -1 15 241 244 230
2 -1 15 241 244 230
3 -1 15 241 244 230
4 -1 15 241 244 230
5 -1 15 241 244 230
-6 0 15 241 244 230
5 0 15 241 244 230
-6 1 15 241 244 230
3 1 15 151 112 58
5 1 15 241 244 230
-6 2 15 241 244 230
5 2 15 241 244 230
-6 3 15 241 244 230
-4 3 15 151 112 58
5 3 15 241 244 230
-6 4 15 241 244 230
5 4 15 241 244 230
-6 5 15 241 244 230
-5 5 15 241 244 230
-4 5 15 241 244 230
-3 5 15 241 244 230
-2 5 15 241 244 230
-1 5 15 241 244 230
0 5 15 241 244 230
1 5 15 241 244 230
2 5 15 241 244 230
3 5 15 241 244 230
4 5 15 241 244 230
5 5 15 241 244 230
3 1 16 151 112 58
-4 3 16 151 112 58
2 0 17 56 139 48
3 0 17 56 139 48
4 0 17 92 206 44
2 1 17 92 206 44
3 1 17 151 112 58
4 1 17 56 139 48
-5 2 17 56 139 48
-4 2 17 56 139 48
-3 2 17 56 139 48
2 2 17 56 139 48
3 2 17 92 206 44
4 2 17 56 139 48
-5 3 17 92 206 44
-4 3 17 151 112 58
-3 3 17 56 139 48
-5 4 17 56 139 48
-4 4 17 56 139 48
-3 4 17 56 139 48
3 0 18 56 139 48
2 1 18 56 139 48
3 1 18 92 206 44
4 1 18 56 139 48
-4 2 18 92 206 44
3 2 18 56 139 48
-5 3 18 56 139 48
-4 3 18 56 139 48
-3 3 18 56 139 48
-4 4 18 92 206 44
