ply
format ascii 1.0
comment : MagicaVoxel @ Ephtracy
element vertex 762
property float x
property float y
property float z
property uchar red
property uchar green
property uchar blue
end_header
26 -12 0 57 38 19
18 -10 0 80 58 33
19 -10 0 80 58 33
20 -10 0 80 58 33
21 -10 0 80 58 33
22 -10 0 80 58 33
23 -10 0 80 58 33
24 -10 0 80 58 33
25 -10 0 80 58 33
26 -10 0 80 58 33
26 -9 0 80 58 33
26 -8 0 80 58 33
26 -7 0 198 147 70
27 -7 0 198 147 70
28 -7 0 57 38 19
26 -6 0 80 58 33
26 -5 0 80 58 33
26 -4 0 198 147 70
27 -4 0 198 147 70
28 -4 0 57 38 19
26 -3 0 80 58 33
26 -2 0 80 58 33
18 -1 0 80 58 33
19 -1 0 80 58 33
20 -1 0 80 58 33
21 -1 0 80 58 33
22 -1 0 80 58 33
23 -1 0 80 58 33
24 -1 0 80 58 33
25 -1 0 80 58 33
26 -1 0 80 58 33
26 1 0 57 38 19
26 -12 1 57 38 19
18 -9 1 151 112 58
19 -9 1 151 112 58
20 -9 1 151 112 58
21 -9 1 151 112 58
22 -9 1 151 112 58
23 -9 1 198 147 70
24 -9 1 151 112 58
25 -9 1 198 147 70
26 -9 1 80 58 33
25 -8 1 198 147 70
25 -7 1 198 147 70
26 -7 1 198 147 70
27 -7 1 198 147 70
28 -7 1 57 38 19
25 -6 1 198 147 70
26 -6 1 80 58 33
25 -5 1 198 147 70
26 -5 1 80 58 33
25 -4 1 198 147 70
26 -4 1 198 147 70
27 -4 1 198 147 70
28 -4 1 57 38 19
25 -3 1 198 147 70
18 -2 1 151 112 58
19 -2 1 151 112 58
20 -2 1 151 112 58
21 -2 1 151 112 58
22 -2 1 151 112 58
23 -2 1 198 147 70
24 -2 1 151 112 58
25 -2 1 198 147 70
26 -2 1 80 58 33
26 1 1 57 38 19
26 -12 2 57 38 19
18 -9 2 151 112 58
19 -9 2 198 147 70
20 -9 2 198 147 70
21 -9 2 151 112 58
22 -9 2 151 112 58
23 -9 2 198 147 70
24 -9 2 198 147 70
25 -9 2 151 112 58
26 -9 2 80 58 33
25 -8 2 198 147 70
25 -7 2 198 147 70
26 -7 2 198 147 70
27 -7 2 198 147 70
28 -7 2 57 38 19
25 -6 2 198 147 70
26 -6 2 80 58 33
25 -5 2 198 147 70
26 -5 2 80 58 33
25 -4 2 198 147 70
26 -4 2 198 147 70
27 -4 2 198 147 70
28 -4 2 57 38 19
25 -3 2 198 147 70
18 -2 2 151 112 58
19 -2 2 198 147 70
20 -2 2 198 147 70
21 -2 2 151 112 58
22 -2 2 151 112 58
23 -2 2 198 147 70
24 -2 2 198 147 70
25 -2 2 151 112 58
26 -2 2 80 58 33
26 1 2 57 38 19
26 -12 3 57 38 19
21 -10 3 80 58 33
22 -10 3 80 58 33
18 -9 3 198 147 70
19 -9 3 198 147 70
20 -9 3 198 147 70
21 -9 3 198 147 70
22 -9 3 198 147 70
23 -9 3 198 147 70
24 -9 3 198 147 70
25 -9 3 198 147 70
26 -9 3 80 58 33
25 -8 3 198 147 70
25 -7 3 198 147 70
26 -7 3 198 147 70
27 -7 3 198 147 70
28 -7 3 57 38 19
25 -6 3 198 147 70
26 -6 3 80 58 33
25 -5 3 198 147 70
26 -5 3 80 58 33
25 -4 3 198 147 70
26 -4 3 198 147 70
27 -4 3 198 147 70
28 -4 3 57 38 19
25 -3 3 198 147 70
18 -2 3 198 147 70
19 -2 3 198 147 70
20 -2 3 198 147 70
21 -2 3 198 147 70
22 -2 3 198 147 70
23 -2 3 198 147 70
24 -2 3 198 147 70
25 -2 3 198 147 70
26 -2 3 80 58 33
21 -1 3 80 58 33
22 -1 3 80 58 33
26 1 3 57 38 19
26 -12 4 57 38 19
21 -10 4 80 58 33
22 -10 4 80 58 33
18 -9 4 151 112 58
19 -9 4 151 112 58
20 -9 4 198 147 70
21 -9 4 198 147 70
22 -9 4 198 147 70
23 -9 4 198 147 70
24 -9 4 198 147 70
25 -9 4 198 147 70
26 -9 4 80 58 33
25 -8 4 198 147 70
25 -7 4 198 147 70
26 -7 4 198 147 70
27 -7 4 198 147 70
28 -7 4 57 38 19
25 -6 4 198 147 70
26 -6 4 80 58 33
25 -5 4 198 147 70
26 -5 4 80 58 33
25 -4 4 198 147 70
26 -4 4 198 147 70
27 -4 4 198 147 70
28 -4 4 57 38 19
25 -3 4 198 147 70
18 -2 4 151 112 58
19 -2 4 151 112 58
20 -2 4 198 147 70
21 -2 4 198 147 70
22 -2 4 198 147 70
23 -2 4 198 147 70
24 -2 4 198 147 70
25 -2 4 198 147 70
26 -2 4 80 58 33
21 -1 4 80 58 33
22 -1 4 80 58 33
26 1 4 57 38 19
26 -12 5 57 38 19
21 -10 5 80 58 33
22 -10 5 57 38 19
18 -9 5 198 147 70
19 -9 5 198 147 70
20 -9 5 198 147 70
21 -9 5 198 147 70
22 -9 5 198 147 70
23 -9 5 198 147 70
24 -9 5 198 147 70
25 -9 5 198 147 70
26 -9 5 80 58 33
25 -8 5 198 147 70
26 -8 5 80 58 33
27 -8 5 57 38 19
28 -8 5 57 38 19
25 -7 5 198 147 70
26 -7 5 80 58 33
27 -7 5 198 147 70
28 -7 5 57 38 19
25 -6 5 198 147 70
26 -6 5 198 147 70
27 -6 5 198 147 70
25 -5 5 198 147 70
26 -5 5 198 147 70
27 -5 5 198 147 70
25 -4 5 198 147 70
26 -4 5 80 58 33
27 -4 5 198 147 70
28 -4 5 57 38 19
25 -3 5 198 147 70
26 -3 5 80 58 33
27 -3 5 57 38 19
28 -3 5 57 38 19
18 -2 5 198 147 70
19 -2 5 198 147 70
20 -2 5 198 147 70
21 -2 5 198 147 70
22 -2 5 198 147 70
23 -2 5 198 147 70
24 -2 5 198 147 70
25 -2 5 198 147 70
26 -2 5 80 58 33
21 -1 5 80 58 33
22 -1 5 57 38 19
26 1 5 57 38 19
26 -12 6 57 38 19
18 -10 6 80 58 33
19 -10 6 57 38 19
20 -10 6 57 38 19
21 -10 6 57 38 19
22 -10 6 80 58 33
23 -10 6 80 58 33
24 -10 6 57 38 19
25 -10 6 80 58 33
18 -9 6 198 147 70
19 -9 6 198 147 70
20 -9 6 198 147 70
21 -9 6 198 147 70
22 -9 6 198 147 70
23 -9 6 198 147 70
24 -9 6 198 147 70
25 -9 6 198 147 70
26 -9 6 80 58 33
25 -8 6 151 112 58
25 -7 6 198 147 70
27 -7 6 57 38 19
28 -7 6 57 38 19
25 -6 6 198 147 70
26 -6 6 80 58 33
27 -6 6 198 147 70
28 -6 6 80 58 33
25 -5 6 198 147 70
26 -5 6 80 58 33
27 -5 6 198 147 70
28 -5 6 80 58 33
25 -4 6 198 147 70
27 -4 6 57 38 19
28 -4 6 57 38 19
25 -3 6 151 112 58
18 -2 6 198 147 70
19 -2 6 198 147 70
20 -2 6 198 147 70
21 -2 6 198 147 70
22 -2 6 198 147 70
23 -2 6 198 147 70
24 -2 6 198 147 70
25 -2 6 198 147 70
26 -2 6 80 58 33
18 -1 6 80 58 33
19 -1 6 57 38 19
20 -1 6 57 38 19
21 -1 6 57 38 19
22 -1 6 80 58 33
23 -1 6 80 58 33
24 -1 6 57 38 19
25 -1 6 80 58 33
26 1 6 57 38 19
26 -12 7 57 38 19
18 -10 7 80 58 33
19 -10 7 80 58 33
20 -10 7 80 58 33
21 -10 7 80 58 33
22 -10 7 80 58 33
23 -10 7 80 58 33
24 -10 7 57 38 19
25 -10 7 80 58 33
26 -10 7 198 147 70
18 -9 7 198 147 70
19 -9 7 198 147 70
20 -9 7 198 147 70
21 -9 7 198 147 70
22 -9 7 198 147 70
23 -9 7 198 147 70
24 -9 7 198 147 70
25 -9 7 198 147 70
26 -9 7 80 58 33
25 -8 7 198 147 70
25 -7 7 151 112 58
25 -6 7 198 147 70
26 -6 7 80 58 33
27 -6 7 80 58 33
28 -6 7 80 58 33
25 -5 7 198 147 70
26 -5 7 80 58 33
27 -5 7 80 58 33
28 -5 7 80 58 33
25 -4 7 151 112 58
25 -3 7 198 147 70
18 -2 7 198 147 70
19 -2 7 198 147 70
20 -2 7 198 147 70
21 -2 7 198 147 70
22 -2 7 198 147 70
23 -2 7 198 147 70
24 -2 7 198 147 70
25 -2 7 198 147 70
26 -2 7 80 58 33
18 -1 7 80 58 33
19 -1 7 80 58 33
20 -1 7 80 58 33
21 -1 7 80 58 33
22 -1 7 80 58 33
23 -1 7 80 58 33
24 -1 7 57 38 19
25 -1 7 80 58 33
26 -1 7 198 147 70
26 1 7 57 38 19
18 -12 8 57 38 19
25 -12 8 57 38 19
26 -12 8 57 38 19
18 -11 8 80 58 33
19 -11 8 80 58 33
24 -11 8 80 58 33
25 -11 8 80 58 33
26 -11 8 198 147 70
18 -10 8 80 58 33
19 -10 8 80 58 33
20 -10 8 57 38 19
21 -10 8 57 38 19
22 -10 8 80 58 33
23 -10 8 80 58 33
24 -10 8 80 58 33
25 -10 8 80 58 33
26 -10 8 198 147 70
18 -9 8 198 147 70
19 -9 8 198 147 70
20 -9 8 198 147 70
21 -9 8 198 147 70
22 -9 8 198 147 70
23 -9 8 198 147 70
24 -9 8 198 147 70
25 -9 8 198 147 70
26 -9 8 80 58 33
25 -8 8 198 147 70
25 -7 8 151 112 58
25 -6 8 151 112 58
25 -5 8 151 112 58
25 -4 8 151 112 58
25 -3 8 198 147 70
18 -2 8 198 147 70
19 -2 8 198 147 70
20 -2 8 198 147 70
21 -2 8 198 147 70
22 -2 8 198 147 70
23 -2 8 198 147 70
24 -2 8 198 147 70
25 -2 8 198 147 70
26 -2 8 80 58 33
18 -1 8 80 58 33
19 -1 8 80 58 33
20 -1 8 57 38 19
21 -1 8 57 38 19
22 -1 8 80 58 33
23 -1 8 80 58 33
24 -1 8 80 58 33
25 -1 8 80 58 33
26 -1 8 198 147 70
18 0 8 80 58 33
19 0 8 80 58 33
24 0 8 80 58 33
25 0 8 80 58 33
26 0 8 198 147 70
18 1 8 57 38 19
25 1 8 57 38 19
26 1 8 57 38 19
18 -12 9 57 38 19
19 -12 9 57 38 19
24 -12 9 57 38 19
25 -12 9 57 38 19
26 -12 9 57 38 19
27 -12 9 57 38 19
18 -11 9 80 58 33
19 -11 9 80 58 33
20 -11 9 80 58 33
21 -11 9 57 38 19
22 -11 9 57 38 19
23 -11 9 80 58 33
24 -11 9 198 147 70
25 -11 9 198 147 70
26 -11 9 151 112 58
18 -10 9 80 58 33
19 -10 9 80 58 33
20 -10 9 80 58 33
21 -10 9 80 58 33
22 -10 9 80 58 33
23 -10 9 80 58 33
24 -10 9 198 147 70
25 -10 9 198 147 70
26 -10 9 151 112 58
18 -9 9 198 147 70
19 -9 9 198 147 70
20 -9 9 198 147 70
21 -9 9 198 147 70
22 -9 9 198 147 70
23 -9 9 198 147 70
24 -9 9 198 147 70
25 -9 9 198 147 70
26 -9 9 80 58 33
25 -8 9 198 147 70
25 -7 9 151 112 58
25 -6 9 151 112 58
25 -5 9 151 112 58
25 -4 9 151 112 58
25 -3 9 198 147 70
18 -2 9 198 147 70
19 -2 9 198 147 70
20 -2 9 198 147 70
21 -2 9 198 147 70
22 -2 9 198 147 70
23 -2 9 198 147 70
24 -2 9 198 147 70
25 -2 9 198 147 70
26 -2 9 80 58 33
18 -1 9 80 58 33
19 -1 9 80 58 33
20 -1 9 80 58 33
21 -1 9 80 58 33
22 -1 9 80 58 33
23 -1 9 80 58 33
24 -1 9 198 147 70
25 -1 9 198 147 70
26 -1 9 151 112 58
18 0 9 80 58 33
19 0 9 80 58 33
20 0 9 80 58 33
21 0 9 57 38 19
22 0 9 57 38 19
23 0 9 80 58 33
24 0 9 198 147 70
25 0 9 198 147 70
26 0 9 151 112 58
18 1 9 57 38 19
19 1 9 57 38 19
24 1 9 57 38 19
25 1 9 57 38 19
26 1 9 57 38 19
27 1 9 57 38 19
18 -12 10 57 38 19
19 -12 10 57 38 19
20 -12 10 57 38 19
21 -12 10 57 38 19
22 -12 10 57 38 19
23 -12 10 57 38 19
24 -12 10 57 38 19
25 -12 10 57 38 19
26 -12 10 57 38 19
27 -12 10 57 38 19
18 -11 10 80 58 33
19 -11 10 57 38 19
20 -11 10 57 38 19
21 -11 10 57 38 19
22 -11 10 57 38 19
23 -11 10 57 38 19
24 -11 10 57 38 19
25 -11 10 80 58 33
26 -11 10 80 58 33
27 -11 10 57 38 19
18 -10 10 80 58 33
19 -10 10 80 58 33
20 -10 10 57 38 19
21 -10 10 57 38 19
22 -10 10 57 38 19
23 -10 10 57 38 19
24 -10 10 57 38 19
25 -10 10 57 38 19
26 -10 10 57 38 19
27 -10 10 57 38 19
18 -9 10 198 147 70
19 -9 10 198 147 70
20 -9 10 198 147 70
21 -9 10 198 147 70
22 -9 10 198 147 70
23 -9 10 198 147 70
24 -9 10 198 147 70
25 -9 10 198 147 70
26 -9 10 80 58 33
25 -8 10 198 147 70
25 -7 10 151 112 58
25 -6 10 198 147 70
25 -5 10 198 147 70
25 -4 10 151 112 58
25 -3 10 198 147 70
18 -2 10 198 147 70
19 -2 10 198 147 70
20 -2 10 198 147 70
21 -2 10 198 147 70
22 -2 10 198 147 70
23 -2 10 198 147 70
24 -2 10 198 147 70
25 -2 10 198 147 70
26 -2 10 80 58 33
18 -1 10 80 58 33
19 -1 10 80 58 33
20 -1 10 57 38 19
21 -1 10 57 38 19
22 -1 10 57 38 19
23 -1 10 57 38 19
24 -1 10 57 38 19
25 -1 10 57 38 19
26 -1 10 57 38 19
27 -1 10 57 38 19
18 0 10 80 58 33
19 0 10 57 38 19
20 0 10 57 38 19
21 0 10 57 38 19
22 0 10 57 38 19
23 0 10 57 38 19
24 0 10 57 38 19
25 0 10 80 58 33
26 0 10 80 58 33
27 0 10 57 38 19
18 1 10 57 38 19
19 1 10 57 38 19
20 1 10 57 38 19
21 1 10 57 38 19
22 1 10 57 38 19
23 1 10 57 38 19
24 1 10 57 38 19
25 1 10 57 38 19
26 1 10 57 38 19
27 1 10 57 38 19
18 -9 11 80 58 33
19 -9 11 80 58 33
20 -9 11 80 58 33
21 -9 11 57 38 19
22 -9 11 57 38 19
23 -9 11 57 38 19
24 -9 11 80 58 33
25 -9 11 57 38 19
26 -9 11 57 38 19
25 -8 11 198 147 70
25 -7 11 198 147 70
24 -6 11 80 58 33
24 -5 11 80 58 33
25 -4 11 198 147 70
25 -3 11 198 147 70
18 -2 11 80 58 33
19 -2 11 80 58 33
20 -2 11 80 58 33
21 -2 11 57 38 19
22 -2 11 57 38 19
23 -2 11 57 38 19
24 -2 11 80 58 33
25 -2 11 57 38 19
26 -2 11 57 38 19
19 -9 12 80 58 33
20 -9 12 57 38 19
21 -9 12 57 38 19
22 -9 12 80 58 33
23 -9 12 57 38 19
24 -9 12 57 38 19
25 -9 12 57 38 19
26 -9 12 80 58 33
18 -8 12 198 147 70
19 -8 12 80 58 33
25 -8 12 151 112 58
19 -7 12 80 58 33
25 -7 12 198 147 70
24 -6 12 80 58 33
24 -5 12 80 58 33
19 -4 12 80 58 33
25 -4 12 198 147 70
18 -3 12 198 147 70
19 -3 12 80 58 33
25 -3 12 151 112 58
19 -2 12 80 58 33
20 -2 12 57 38 19
21 -2 12 57 38 19
22 -2 12 80 58 33
23 -2 12 57 38 19
24 -2 12 57 38 19
25 -2 12 57 38 19
26 -2 12 80 58 33
19 -9 13 80 58 33
18 -8 13 198 147 70
19 -8 13 80 58 33
20 -8 13 57 38 19
21 -8 13 80 58 33
22 -8 13 57 38 19
23 -8 13 57 38 19
24 -8 13 80 58 33
25 -8 13 80 58 33
26 -8 13 80 58 33
19 -7 13 80 58 33
25 -7 13 151 112 58
24 -6 13 198 147 70
25 -6 13 198 147 70
24 -5 13 198 147 70
25 -5 13 198 147 70
19 -4 13 80 58 33
25 -4 13 151 112 58
18 -3 13 198 147 70
19 -3 13 80 58 33
20 -3 13 57 38 19
21 -3 13 80 58 33
22 -3 13 57 38 19
23 -3 13 57 38 19
24 -3 13 80 58 33
25 -3 13 80 58 33
26 -3 13 80 58 33
19 -2 13 80 58 33
19 -9 14 80 58 33
18 -8 14 198 147 70
19 -8 14 80 58 33
20 -8 14 57 38 19
21 -8 14 57 38 19
22 -8 14 80 58 33
23 -8 14 57 38 19
24 -8 14 57 38 19
25 -8 14 57 38 19
26 -8 14 80 58 33
19 -7 14 80 58 33
25 -7 14 198 147 70
26 -7 14 80 58 33
24 -6 14 198 147 70
25 -6 14 198 147 70
24 -5 14 198 147 70
25 -5 14 198 147 70
19 -4 14 80 58 33
25 -4 14 198 147 70
26 -4 14 80 58 33
18 -3 14 198 147 70
19 -3 14 80 58 33
20 -3 14 57 38 19
21 -3 14 57 38 19
22 -3 14 80 58 33
23 -3 14 57 38 19
24 -3 14 57 38 19
25 -3 14 57 38 19
26 -3 14 80 58 33
19 -2 14 80 58 33
19 -9 15 80 58 33
18 -8 15 198 147 70
19 -8 15 80 58 33
18 -7 15 198 147 70
19 -7 15 80 58 33
20 -7 15 57 38 19
21 -7 15 57 38 19
22 -7 15 80 58 33
23 -7 15 80 58 33
24 -7 15 57 38 19
25 -7 15 80 58 33
26 -7 15 80 58 33
24 -6 15 198 147 70
25 -6 15 151 112 58
24 -5 15 198 147 70
25 -5 15 151 112 58
18 -4 15 198 147 70
19 -4 15 80 58 33
20 -4 15 57 38 19
21 -4 15 57 38 19
22 -4 15 80 58 33
23 -4 15 80 58 33
24 -4 15 57 38 19
25 -4 15 80 58 33
26 -4 15 80 58 33
18 -3 15 198 147 70
19 -3 15 80 58 33
19 -2 15 80 58 33
19 -9 16 80 58 33
19 -8 16 80 58 33
18 -7 16 248 233 68
19 -7 16 80 58 33
18 -6 16 198 147 70
19 -6 16 80 58 33
20 -6 16 57 38 19
21 -6 16 57 38 19
22 -6 16 80 58 33
23 -6 16 57 38 19
24 -6 16 80 58 33
25 -6 16 57 38 19
26 -6 16 80 58 33
18 -5 16 198 147 70
19 -5 16 80 58 33
20 -5 16 57 38 19
21 -5 16 57 38 19
22 -5 16 80 58 33
23 -5 16 57 38 19
24 -5 16 80 58 33
25 -5 16 57 38 19
26 -5 16 80 58 33
18 -4 16 248 233 68
19 -4 16 80 58 33
19 -3 16 80 58 33
19 -2 16 80 58 33
18 -9 17 136 65 46
19 -9 17 136 65 46
20 -9 17 136 65 46
18 -8 17 136 65 46
19 -8 17 136 65 46
20 -8 17 136 65 46
18 -7 17 136 65 46
19 -7 17 136 65 46
20 -7 17 181 88 63
18 -6 17 136 65 46
19 -6 17 136 65 46
20 -6 17 136 65 46
21 -6 17 80 58 33
22 -6 17 57 38 19
23 -6 17 80 58 33
24 -6 17 57 38 19
25 -6 17 57 38 19
26 -6 17 80 58 33
18 -5 17 136 65 46
19 -5 17 136 65 46
20 -5 17 136 65 46
21 -5 17 80 58 33
22 -5 17 57 38 19
23 -5 17 80 58 33
24 -5 17 57 38 19
25 -5 17 57 38 19
26 -5 17 80 58 33
18 -4 17 136 65 46
19 -4 17 136 65 46
20 -4 17 181 88 63
18 -3 17 136 65 46
19 -3 17 136 65 46
20 -3 17 136 65 46
18 -2 17 136 65 46
19 -2 17 136 65 46
20 -2 17 136 65 46
18 -9 18 136 65 46
19 -9 18 136 65 46
18 -8 18 136 65 46
19 -8 18 181 88 63
18 -7 18 136 65 46
19 -7 18 181 88 63
18 -6 18 136 65 46
19 -6 18 181 88 63
26 -6 18 80 58 33
18 -5 18 136 65 46
19 -5 18 181 88 63
26 -5 18 80 58 33
18 -4 18 136 65 46
19 -4 18 181 88 63
18 -3 18 136 65 46
19 -3 18 181 88 63
18 -2 18 136 65 46
19 -2 18 136 65 46
18 -8 19 136 65 46
18 -7 19 136 65 46
18 -6 19 136 65 46
18 -5 19 136 65 46
18 -4 19 136 65 46
18 -3 19 136 65 46
