ply
format ascii 1.0
comment : MagicaVoxel @ Ephtracy
element vertex 1072
property float x
property float y
property float z
property uchar red
property uchar green
property uchar blue
end_header
-19 -12 0 136 65 46
-18 -12 0 136 65 46
-20 -11 0 136 65 46
-19 -11 0 136 65 46
-18 -11 0 136 65 46
-17 -11 0 136 65 46
-16 -11 0 151 112 58
-15 -11 0 151 112 58
-25 -10 0 198 147 70
-24 -10 0 151 112 58
-23 -10 0 151 112 58
-22 -10 0 198 147 70
-21 -10 0 151 112 58
-25 -9 0 151 112 58
-27 -8 0 80 58 33
-26 -8 0 198 147 70
-28 -7 0 198 147 70
-29 -6 0 80 58 33
-28 -6 0 198 147 70
-27 -6 0 198 147 70
-29 -5 0 80 58 33
-28 -5 0 198 147 70
-27 -5 0 198 147 70
-28 -4 0 198 147 70
-27 -3 0 80 58 33
-26 -3 0 198 147 70
-25 -2 0 151 112 58
-25 -1 0 198 147 70
-24 -1 0 151 112 58
-23 -1 0 151 112 58
-22 -1 0 198 147 70
-21 -1 0 151 112 58
-20 0 0 136 65 46
-19 0 0 136 65 46
-18 0 0 136 65 46
-17 0 0 136 65 46
-16 0 0 151 112 58
-15 0 0 151 112 58
-19 1 0 136 65 46
-18 1 0 136 65 46
-19 -12 1 136 65 46
-18 -12 1 136 65 46
-20 -11 1 136 65 46
-19 -11 1 136 65 46
-18 -11 1 136 65 46
-17 -11 1 136 65 46
-16 -11 1 151 112 58
-15 -11 1 151 112 58
-25 -10 1 151 112 58
-24 -10 1 151 112 58
-23 -10 1 151 112 58
-22 -10 1 151 112 58
-21 -10 1 198 147 70
-25 -9 1 151 112 58
-27 -8 1 80 58 33
-26 -8 1 198 147 70
-28 -7 1 198 147 70
-27 -6 1 54 54 54
-27 -5 1 54 54 54
-28 -4 1 198 147 70
-27 -3 1 80 58 33
-26 -3 1 198 147 70
-25 -2 1 151 112 58
-25 -1 1 151 112 58
-24 -1 1 151 112 58
-23 -1 1 151 112 58
-22 -1 1 151 112 58
-21 -1 1 198 147 70
-20 0 1 136 65 46
-19 0 1 136 65 46
-18 0 1 136 65 46
-17 0 1 136 65 46
-16 0 1 151 112 58
-15 0 1 151 112 58
-19 1 1 136 65 46
-18 1 1 136 65 46
-19 -12 2 136 65 46
-18 -12 2 136 65 46
-20 -11 2 136 65 46
-19 -11 2 136 65 46
-18 -11 2 136 65 46
-17 -11 2 136 65 46
-16 -11 2 151 112 58
-15 -11 2 151 112 58
-25 -10 2 198 147 70
-24 -10 2 198 147 70
-23 -10 2 198 147 70
-22 -10 2 151 112 58
-21 -10 2 198 147 70
-25 -9 2 198 147 70
-27 -8 2 80 58 33
-26 -8 2 198 147 70
-28 -7 2 198 147 70
-27 -6 2 54 54 54
-27 -5 2 54 54 54
-28 -4 2 198 147 70
-27 -3 2 80 58 33
-26 -3 2 198 147 70
-25 -2 2 198 147 70
-25 -1 2 198 147 70
-24 -1 2 198 147 70
-23 -1 2 198 147 70
-22 -1 2 151 112 58
-21 -1 2 198 147 70
-20 0 2 136 65 46
-19 0 2 136 65 46
-18 0 2 136 65 46
-17 0 2 136 65 46
-16 0 2 151 112 58
-15 0 2 151 112 58
-19 1 2 136 65 46
-18 1 2 136 65 46
-19 -12 3 136 65 46
-18 -12 3 136 65 46
-20 -11 3 136 65 46
-19 -11 3 136 65 46
-18 -11 3 136 65 46
-17 -11 3 136 65 46
-16 -11 3 151 112 58
-15 -11 3 151 112 58
-25 -10 3 151 112 58
-24 -10 3 151 112 58
-23 -10 3 151 112 58
-22 -10 3 198 147 70
-21 -10 3 198 147 70
-25 -9 3 198 147 70
-27 -8 3 80 58 33
-26 -8 3 198 147 70
-28 -7 3 198 147 70
-27 -6 3 54 54 54
-27 -5 3 54 54 54
-28 -4 3 198 147 70
-27 -3 3 80 58 33
-26 -3 3 198 147 70
-25 -2 3 198 147 70
-25 -1 3 151 112 58
-24 -1 3 151 112 58
-23 -1 3 151 112 58
-22 -1 3 198 147 70
-21 -1 3 198 147 70
-20 0 3 136 65 46
-19 0 3 136 65 46
-18 0 3 136 65 46
-17 0 3 136 65 46
-16 0 3 151 112 58
-15 0 3 151 112 58
-19 1 3 136 65 46
-18 1 3 136 65 46
-19 -12 4 136 65 46
-18 -12 4 136 65 46
-20 -11 4 136 65 46
-19 -11 4 136 65 46
-18 -11 4 136 65 46
-17 -11 4 136 65 46
-16 -11 4 198 147 70
-15 -11 4 151 112 58
-25 -10 4 198 147 70
-24 -10 4 151 112 58
-23 -10 4 198 147 70
-22 -10 4 198 147 70
-21 -10 4 151 112 58
-25 -9 4 198 147 70
-27 -8 4 80 58 33
-26 -8 4 198 147 70
-28 -7 4 198 147 70
-28 -6 4 198 147 70
-27 -6 4 198 147 70
-28 -5 4 198 147 70
-27 -5 4 198 147 70
-28 -4 4 198 147 70
-27 -3 4 80 58 33
-26 -3 4 198 147 70
-25 -2 4 198 147 70
-25 -1 4 198 147 70
-24 -1 4 151 112 58
-23 -1 4 198 147 70
-22 -1 4 198 147 70
-21 -1 4 151 112 58
-20 0 4 136 65 46
-19 0 4 136 65 46
-18 0 4 136 65 46
-17 0 4 136 65 46
-16 0 4 198 147 70
-15 0 4 151 112 58
-19 1 4 136 65 46
-18 1 4 136 65 46
-19 -12 5 181 88 63
-18 -12 5 136 65 46
-20 -11 5 136 65 46
-19 -11 5 136 65 46
-18 -11 5 136 65 46
-17 -11 5 136 65 46
-16 -11 5 198 147 70
-15 -11 5 151 112 58
-25 -10 5 198 147 70
-24 -10 5 198 147 70
-23 -10 5 198 147 70
-22 -10 5 151 112 58
-21 -10 5 198 147 70
-29 -9 5 136 65 46
-28 -9 5 136 65 46
-25 -9 5 151 112 58
-29 -8 5 136 65 46
-28 -8 5 181 88 63
-27 -8 5 80 58 33
-26 -8 5 198 147 70
-28 -7 5 151 112 58
-27 -7 5 198 147 70
-28 -6 5 198 147 70
-27 -6 5 198 147 70
-28 -5 5 198 147 70
-27 -5 5 198 147 70
-28 -4 5 151 112 58
-27 -4 5 198 147 70
-29 -3 5 136 65 46
-28 -3 5 181 88 63
-27 -3 5 80 58 33
-26 -3 5 198 147 70
-29 -2 5 136 65 46
-28 -2 5 136 65 46
-25 -2 5 151 112 58
-25 -1 5 198 147 70
-24 -1 5 198 147 70
-23 -1 5 198 147 70
-22 -1 5 151 112 58
-21 -1 5 198 147 70
-20 0 5 136 65 46
-19 0 5 136 65 46
-18 0 5 136 65 46
-17 0 5 136 65 46
-16 0 5 198 147 70
-15 0 5 151 112 58
-19 1 5 181 88 63
-18 1 5 136 65 46
-19 -12 6 136 65 46
-18 -12 6 136 65 46
-20 -11 6 136 65 46
-19 -11 6 136 65 46
-18 -11 6 136 65 46
-17 -11 6 136 65 46
-16 -11 6 151 112 58
-15 -11 6 151 112 58
-25 -10 6 151 112 58
-24 -10 6 198 147 70
-23 -10 6 198 147 70
-22 -10 6 198 147 70
-21 -10 6 198 147 70
-25 -9 6 198 147 70
-27 -8 6 80 58 33
-26 -8 6 198 147 70
-29 -7 6 136 65 46
-28 -7 6 136 65 46
-28 -6 6 151 112 58
-27 -6 6 198 147 70
-28 -5 6 151 112 58
-27 -5 6 198 147 70
-29 -4 6 136 65 46
-28 -4 6 136 65 46
-27 -3 6 80 58 33
-26 -3 6 198 147 70
-25 -2 6 198 147 70
-25 -1 6 151 112 58
-24 -1 6 198 147 70
-23 -1 6 198 147 70
-22 -1 6 198 147 70
-21 -1 6 198 147 70
-20 0 6 136 65 46
-19 0 6 136 65 46
-18 0 6 136 65 46
-17 0 6 136 65 46
-16 0 6 151 112 58
-15 0 6 151 112 58
-19 1 6 136 65 46
-18 1 6 136 65 46
-19 -12 7 136 65 46
-18 -12 7 181 88 63
-20 -11 7 136 65 46
-19 -11 7 136 65 46
-18 -11 7 136 65 46
-17 -11 7 136 65 46
-16 -11 7 151 112 58
-15 -11 7 151 112 58
-25 -10 7 151 112 58
-24 -10 7 198 147 70
-23 -10 7 151 112 58
-22 -10 7 151 112 58
-21 -10 7 198 147 70
-25 -9 7 198 147 70
-27 -8 7 80 58 33
-26 -8 7 198 147 70
-29 -7 7 181 88 63
-28 -7 7 136 65 46
-27 -7 7 136 65 46
-28 -6 7 151 112 58
-27 -6 7 198 147 70
-26 -6 7 198 147 70
-28 -5 7 151 112 58
-27 -5 7 198 147 70
-26 -5 7 198 147 70
-29 -4 7 181 88 63
-28 -4 7 136 65 46
-27 -4 7 136 65 46
-27 -3 7 80 58 33
-26 -3 7 198 147 70
-25 -2 7 198 147 70
-25 -1 7 151 112 58
-24 -1 7 198 147 70
-23 -1 7 151 112 58
-22 -1 7 151 112 58
-21 -1 7 198 147 70
-20 0 7 136 65 46
-19 0 7 136 65 46
-18 0 7 136 65 46
-17 0 7 136 65 46
-16 0 7 151 112 58
-15 0 7 151 112 58
-19 1 7 136 65 46
-18 1 7 181 88 63
-19 -12 8 136 65 46
-18 -12 8 136 65 46
-20 -11 8 181 88 63
-19 -11 8 136 65 46
-18 -11 8 136 65 46
-17 -11 8 136 65 46
-16 -11 8 151 112 58
-15 -11 8 151 112 58
-25 -10 8 198 147 70
-24 -10 8 198 147 70
-23 -10 8 198 147 70
-22 -10 8 198 147 70
-21 -10 8 198 147 70
-25 -9 8 198 147 70
-27 -8 8 80 58 33
-26 -8 8 198 147 70
-26 -7 8 198 147 70
-29 -6 8 136 65 46
-28 -6 8 136 65 46
-27 -6 8 181 88 63
-29 -5 8 136 65 46
-28 -5 8 136 65 46
-27 -5 8 181 88 63
-26 -4 8 198 147 70
-27 -3 8 80 58 33
-26 -3 8 198 147 70
-25 -2 8 198 147 70
-25 -1 8 198 147 70
-24 -1 8 198 147 70
-23 -1 8 198 147 70
-22 -1 8 198 147 70
-21 -1 8 198 147 70
-20 0 8 181 88 63
-19 0 8 136 65 46
-18 0 8 136 65 46
-17 0 8 136 65 46
-16 0 8 151 112 58
-15 0 8 151 112 58
-19 1 8 136 65 46
-18 1 8 136 65 46
-19 -12 9 181 88 63
-18 -12 9 136 65 46
-20 -11 9 136 65 46
-19 -11 9 136 65 46
-18 -11 9 136 65 46
-17 -11 9 136 65 46
-16 -11 9 151 112 58
-15 -11 9 151 112 58
-25 -10 9 151 112 58
-24 -10 9 151 112 58
-23 -10 9 151 112 58
-22 -10 9 151 112 58
-21 -10 9 151 112 58
-25 -9 9 198 147 70
-27 -8 9 80 58 33
-26 -8 9 198 147 70
-26 -7 9 198 147 70
-26 -6 9 198 147 70
-26 -5 9 198 147 70
-26 -4 9 198 147 70
-27 -3 9 80 58 33
-26 -3 9 198 147 70
-25 -2 9 198 147 70
-25 -1 9 151 112 58
-24 -1 9 151 112 58
-23 -1 9 151 112 58
-22 -1 9 151 112 58
-21 -1 9 151 112 58
-20 0 9 136 65 46
-19 0 9 136 65 46
-18 0 9 136 65 46
-17 0 9 136 65 46
-16 0 9 151 112 58
-15 0 9 151 112 58
-19 1 9 181 88 63
-18 1 9 136 65 46
-19 -12 10 181 88 63
-18 -12 10 181 88 63
-20 -11 10 136 65 46
-19 -11 10 136 65 46
-18 -11 10 136 65 46
-17 -11 10 136 65 46
-16 -11 10 57 38 19
-15 -11 10 80 58 33
-25 -10 10 57 38 19
-24 -10 10 80 58 33
-23 -10 10 57 38 19
-22 -10 10 57 38 19
-21 -10 10 57 38 19
-20 -10 10 80 58 33
-19 -10 10 80 58 33
-18 -10 10 80 58 33
-17 -10 10 136 65 46
-25 -9 10 198 147 70
-27 -8 10 80 58 33
-26 -8 10 198 147 70
-26 -7 10 198 147 70
-26 -6 10 198 147 70
-26 -5 10 198 147 70
-26 -4 10 198 147 70
-27 -3 10 80 58 33
-26 -3 10 198 147 70
-25 -2 10 198 147 70
-25 -1 10 57 38 19
-24 -1 10 80 58 33
-23 -1 10 57 38 19
-22 -1 10 57 38 19
-21 -1 10 57 38 19
-20 -1 10 80 58 33
-19 -1 10 80 58 33
-18 -1 10 80 58 33
-17 -1 10 136 65 46
-20 0 10 136 65 46
-19 0 10 136 65 46
-18 0 10 136 65 46
-17 0 10 136 65 46
-16 0 10 57 38 19
-15 0 10 80 58 33
-19 1 10 181 88 63
-18 1 10 181 88 63
-19 -12 11 181 88 63
-18 -12 11 136 65 46
-20 -11 11 136 65 46
-19 -11 11 136 65 46
-18 -11 11 136 65 46
-17 -11 11 181 88 63
-20 -10 11 136 65 46
-19 -10 11 80 58 33
-18 -10 11 80 58 33
-17 -10 11 136 65 46
-16 -10 11 80 58 33
-15 -10 11 57 38 19
-25 -9 11 80 58 33
-24 -9 11 80 58 33
-23 -9 11 57 38 19
-22 -9 11 80 58 33
-21 -9 11 57 38 19
-20 -9 11 80 58 33
-19 -9 11 80 58 33
-18 -9 11 80 58 33
-17 -9 11 136 65 46
-16 -9 11 57 38 19
-15 -9 11 57 38 19
-27 -8 11 80 58 33
-26 -8 11 80 58 33
-25 -8 11 198 147 70
-24 -8 11 198 147 70
-23 -8 11 198 147 70
-22 -8 11 198 147 70
-21 -8 11 198 147 70
-26 -7 11 80 58 33
-25 -7 11 198 147 70
-26 -6 11 80 58 33
-25 -6 11 198 147 70
-26 -5 11 80 58 33
-25 -5 11 198 147 70
-26 -4 11 80 58 33
-25 -4 11 198 147 70
-27 -3 11 80 58 33
-26 -3 11 80 58 33
-25 -3 11 198 147 70
-24 -3 11 198 147 70
-23 -3 11 198 147 70
-22 -3 11 198 147 70
-21 -3 11 198 147 70
-25 -2 11 80 58 33
-24 -2 11 80 58 33
-23 -2 11 57 38 19
-22 -2 11 80 58 33
-21 -2 11 57 38 19
-20 -2 11 80 58 33
-19 -2 11 80 58 33
-18 -2 11 80 58 33
-17 -2 11 136 65 46
-16 -2 11 57 38 19
-15 -2 11 57 38 19
-20 -1 11 136 65 46
-19 -1 11 80 58 33
-18 -1 11 80 58 33
-17 -1 11 136 65 46
-16 -1 11 80 58 33
-15 -1 11 57 38 19
-20 0 11 136 65 46
-19 0 11 136 65 46
-18 0 11 136 65 46
-17 0 11 181 88 63
-19 1 11 181 88 63
-18 1 11 136 65 46
-19 -12 12 181 88 63
-18 -12 12 136 65 46
-20 -11 12 181 88 63
-19 -11 12 136 65 46
-18 -11 12 136 65 46
-17 -11 12 136 65 46
-20 -10 12 136 65 46
-19 -10 12 80 58 33
-18 -10 12 80 58 33
-17 -10 12 136 65 46
-20 -9 12 80 58 33
-19 -9 12 80 58 33
-18 -9 12 80 58 33
-17 -9 12 136 65 46
-27 -8 12 80 58 33
-26 -8 12 198 147 70
-25 -8 12 198 147 70
-24 -8 12 198 147 70
-23 -8 12 198 147 70
-22 -8 12 198 147 70
-21 -8 12 198 147 70
-20 -8 12 198 147 70
-19 -8 12 198 147 70
-18 -8 12 198 147 70
-17 -8 12 198 147 70
-16 -8 12 198 147 70
-15 -8 12 198 147 70
-26 -7 12 198 147 70
-25 -7 12 198 147 70
-26 -6 12 198 147 70
-25 -6 12 198 147 70
-26 -5 12 198 147 70
-25 -5 12 198 147 70
-26 -4 12 198 147 70
-25 -4 12 198 147 70
-27 -3 12 80 58 33
-26 -3 12 198 147 70
-25 -3 12 198 147 70
-24 -3 12 198 147 70
-23 -3 12 198 147 70
-22 -3 12 198 147 70
-21 -3 12 198 147 70
-20 -3 12 198 147 70
-19 -3 12 198 147 70
-18 -3 12 198 147 70
-17 -3 12 198 147 70
-16 -3 12 198 147 70
-15 -3 12 198 147 70
-20 -2 12 80 58 33
-19 -2 12 80 58 33
-18 -2 12 80 58 33
-17 -2 12 136 65 46
-20 -1 12 136 65 46
-19 -1 12 80 58 33
-18 -1 12 80 58 33
-17 -1 12 136 65 46
-20 0 12 181 88 63
-19 0 12 136 65 46
-18 0 12 136 65 46
-17 0 12 136 65 46
-19 1 12 181 88 63
-18 1 12 136 65 46
-19 -12 13 181 88 63
-18 -12 13 136 65 46
-20 -11 13 181 88 63
-19 -11 13 136 65 46
-18 -11 13 136 65 46
-17 -11 13 181 88 63
-20 -10 13 136 65 46
-19 -10 13 80 58 33
-18 -10 13 80 58 33
-17 -10 13 136 65 46
-27 -9 13 80 58 33
-26 -9 13 80 58 33
-25 -9 13 80 58 33
-24 -9 13 80 58 33
-23 -9 13 80 58 33
-22 -9 13 80 58 33
-21 -9 13 80 58 33
-20 -9 13 80 58 33
-19 -9 13 80 58 33
-18 -9 13 80 58 33
-17 -9 13 136 65 46
-16 -9 13 57 38 19
-15 -9 13 57 38 19
-27 -8 13 80 58 33
-26 -8 13 80 58 33
-25 -8 13 80 58 33
-24 -8 13 80 58 33
-23 -8 13 80 58 33
-22 -8 13 80 58 33
-21 -8 13 80 58 33
-20 -8 13 80 58 33
-19 -8 13 198 147 70
-18 -8 13 198 147 70
-17 -8 13 198 147 70
-16 -8 13 198 147 70
-15 -8 13 80 58 33
-26 -7 13 151 112 58
-25 -7 13 198 147 70
-26 -6 13 57 38 19
-25 -6 13 198 147 70
-26 -5 13 57 38 19
-25 -5 13 198 147 70
-26 -4 13 151 112 58
-25 -4 13 198 147 70
-27 -3 13 80 58 33
-26 -3 13 80 58 33
-25 -3 13 80 58 33
-24 -3 13 80 58 33
-23 -3 13 80 58 33
-22 -3 13 80 58 33
-21 -3 13 80 58 33
-20 -3 13 80 58 33
-19 -3 13 198 147 70
-18 -3 13 198 147 70
-17 -3 13 198 147 70
-16 -3 13 198 147 70
-15 -3 13 80 58 33
-27 -2 13 80 58 33
-26 -2 13 80 58 33
-25 -2 13 80 58 33
-24 -2 13 80 58 33
-23 -2 13 80 58 33
-22 -2 13 80 58 33
-21 -2 13 80 58 33
-20 -2 13 80 58 33
-19 -2 13 80 58 33
-18 -2 13 80 58 33
-17 -2 13 136 65 46
-16 -2 13 57 38 19
-15 -2 13 57 38 19
-20 -1 13 136 65 46
-19 -1 13 80 58 33
-18 -1 13 80 58 33
-17 -1 13 136 65 46
-20 0 13 181 88 63
-19 0 13 136 65 46
-18 0 13 136 65 46
-17 0 13 181 88 63
-19 1 13 181 88 63
-18 1 13 136 65 46
-19 -12 14 181 88 63
-18 -12 14 136 65 46
-20 -11 14 181 88 63
-19 -11 14 136 65 46
-18 -11 14 136 65 46
-17 -11 14 181 88 63
-20 -10 14 181 88 63
-19 -10 14 80 58 33
-18 -10 14 80 58 33
-17 -10 14 136 65 46
-20 -9 14 80 58 33
-19 -9 14 80 58 33
-18 -9 14 80 58 33
-17 -9 14 136 65 46
-27 -8 14 57 38 19
-26 -8 14 57 38 19
-25 -8 14 80 58 33
-24 -8 14 57 38 19
-23 -8 14 57 38 19
-22 -8 14 57 38 19
-21 -8 14 57 38 19
-20 -8 14 80 58 33
-19 -8 14 198 147 70
-18 -8 14 198 147 70
-17 -8 14 80 58 33
-16 -8 14 80 58 33
-15 -8 14 57 38 19
-27 -7 14 80 58 33
-26 -7 14 80 58 33
-25 -7 14 198 147 70
-24 -7 14 198 147 70
-23 -7 14 198 147 70
-22 -7 14 198 147 70
-21 -7 14 198 147 70
-20 -7 14 198 147 70
-19 -7 14 198 147 70
-18 -7 14 198 147 70
-17 -7 14 80 58 33
-16 -7 14 80 58 33
-15 -7 14 80 58 33
-26 -6 14 57 38 19
-25 -6 14 198 147 70
-24 -6 14 198 147 70
-23 -6 14 198 147 70
-22 -6 14 198 147 70
-21 -6 14 198 147 70
-20 -6 14 198 147 70
-19 -6 14 198 147 70
-18 -6 14 198 147 70
-17 -6 14 198 147 70
-16 -6 14 198 147 70
-26 -5 14 57 38 19
-25 -5 14 198 147 70
-24 -5 14 198 147 70
-23 -5 14 198 147 70
-22 -5 14 198 147 70
-21 -5 14 198 147 70
-20 -5 14 198 147 70
-19 -5 14 198 147 70
-18 -5 14 198 147 70
-17 -5 14 198 147 70
-16 -5 14 198 147 70
-27 -4 14 80 58 33
-26 -4 14 80 58 33
-25 -4 14 198 147 70
-24 -4 14 198 147 70
-23 -4 14 198 147 70
-22 -4 14 198 147 70
-21 -4 14 198 147 70
-20 -4 14 198 147 70
-19 -4 14 198 147 70
-18 -4 14 198 147 70
-17 -4 14 80 58 33
-16 -4 14 80 58 33
-15 -4 14 80 58 33
-27 -3 14 57 38 19
-26 -3 14 57 38 19
-25 -3 14 80 58 33
-24 -3 14 57 38 19
-23 -3 14 57 38 19
-22 -3 14 57 38 19
-21 -3 14 57 38 19
-20 -3 14 80 58 33
-19 -3 14 198 147 70
-18 -3 14 198 147 70
-17 -3 14 80 58 33
-16 -3 14 80 58 33
-15 -3 14 57 38 19
-20 -2 14 80 58 33
-19 -2 14 80 58 33
-18 -2 14 80 58 33
-17 -2 14 136 65 46
-20 -1 14 181 88 63
-19 -1 14 80 58 33
-18 -1 14 80 58 33
-17 -1 14 136 65 46
-20 0 14 181 88 63
-19 0 14 136 65 46
-18 0 14 136 65 46
-17 0 14 181 88 63
-19 1 14 181 88 63
-18 1 14 136 65 46
-19 -12 15 57 38 19
-18 -12 15 57 38 19
-20 -11 15 57 38 19
-19 -11 15 57 38 19
-18 -11 15 57 38 19
-17 -11 15 57 38 19
-20 -10 15 57 38 19
-19 -10 15 57 38 19
-18 -10 15 80 58 33
-17 -10 15 57 38 19
-20 -9 15 57 38 19
-19 -9 15 57 38 19
-18 -9 15 80 58 33
-17 -9 15 57 38 19
-19 -8 15 57 38 19
-18 -8 15 198 147 70
-27 -7 15 57 38 19
-26 -7 15 57 38 19
-25 -7 15 57 38 19
-24 -7 15 57 38 19
-23 -7 15 57 38 19
-22 -7 15 57 38 19
-21 -7 15 57 38 19
-20 -7 15 80 58 33
-19 -7 15 198 147 70
-18 -7 15 198 147 70
-17 -7 15 80 58 33
-16 -7 15 80 58 33
-15 -7 15 80 58 33
-26 -6 15 198 147 70
-25 -6 15 198 147 70
-24 -6 15 198 147 70
-23 -6 15 198 147 70
-22 -6 15 198 147 70
-21 -6 15 198 147 70
-20 -6 15 198 147 70
-19 -6 15 198 147 70
-18 -6 15 198 147 70
-17 -6 15 198 147 70
-16 -6 15 198 147 70
-26 -5 15 198 147 70
-25 -5 15 198 147 70
-24 -5 15 198 147 70
-23 -5 15 198 147 70
-22 -5 15 198 147 70
-21 -5 15 198 147 70
-20 -5 15 198 147 70
-19 -5 15 198 147 70
-18 -5 15 198 147 70
-17 -5 15 198 147 70
-16 -5 15 198 147 70
-27 -4 15 57 38 19
-26 -4 15 57 38 19
-25 -4 15 57 38 19
-24 -4 15 57 38 19
-23 -4 15 57 38 19
-22 -4 15 57 38 19
-21 -4 15 57 38 19
-20 -4 15 80 58 33
-19 -4 15 198 147 70
-18 -4 15 198 147 70
-17 -4 15 80 58 33
-16 -4 15 80 58 33
-15 -4 15 80 58 33
-19 -3 15 57 38 19
-18 -3 15 198 147 70
-20 -2 15 57 38 19
-19 -2 15 57 38 19
-18 -2 15 80 58 33
-17 -2 15 57 38 19
-20 -1 15 57 38 19
-19 -1 15 57 38 19
-18 -1 15 80 58 33
-17 -1 15 57 38 19
-20 0 15 57 38 19
-19 0 15 57 38 19
-18 0 15 57 38 19
-17 0 15 57 38 19
-19 1 15 57 38 19
-18 1 15 57 38 19
-19 -12 16 151 112 58
-18 -12 16 151 112 58
-20 -11 16 198 147 70
-19 -11 16 136 65 46
-18 -11 16 136 65 46
-17 -11 16 198 147 70
-20 -10 16 198 147 70
-19 -10 16 80 58 33
-18 -10 16 80 58 33
-17 -10 16 198 147 70
-20 -9 16 151 112 58
-19 -9 16 80 58 33
-18 -9 16 80 58 33
-17 -9 16 198 147 70
-19 -8 16 198 147 70
-18 -8 16 198 147 70
-27 -7 16 80 58 33
-26 -7 16 57 38 19
-25 -7 16 57 38 19
-24 -7 16 57 38 19
-23 -7 16 57 38 19
-22 -7 16 80 58 33
-21 -7 16 57 38 19
-20 -7 16 80 58 33
-19 -7 16 198 147 70
-18 -7 16 198 147 70
-17 -7 16 80 58 33
-16 -7 16 80 58 33
-15 -7 16 80 58 33
-26 -6 16 151 112 58
-25 -6 16 198 147 70
-24 -6 16 198 147 70
-23 -6 16 198 147 70
-22 -6 16 198 147 70
-21 -6 16 198 147 70
-20 -6 16 198 147 70
-19 -6 16 198 147 70
-18 -6 16 198 147 70
-17 -6 16 198 147 70
-16 -6 16 198 147 70
-26 -5 16 151 112 58
-25 -5 16 198 147 70
-24 -5 16 198 147 70
-23 -5 16 198 147 70
-22 -5 16 198 147 70
-21 -5 16 198 147 70
-20 -5 16 198 147 70
-19 -5 16 198 147 70
-18 -5 16 198 147 70
-17 -5 16 198 147 70
-16 -5 16 198 147 70
-27 -4 16 80 58 33
-26 -4 16 57 38 19
-25 -4 16 57 38 19
-24 -4 16 57 38 19
-23 -4 16 57 38 19
-22 -4 16 80 58 33
-21 -4 16 57 38 19
-20 -4 16 80 58 33
-19 -4 16 198 147 70
-18 -4 16 198 147 70
-17 -4 16 80 58 33
-16 -4 16 80 58 33
-15 -4 16 80 58 33
-19 -3 16 198 147 70
-18 -3 16 198 147 70
-20 -2 16 151 112 58
-19 -2 16 80 58 33
-18 -2 16 80 58 33
-17 -2 16 198 147 70
-20 -1 16 198 147 70
-19 -1 16 80 58 33
-18 -1 16 80 58 33
-17 -1 16 198 147 70
-20 0 16 198 147 70
-19 0 16 136 65 46
-18 0 16 136 65 46
-17 0 16 198 147 70
-19 1 16 151 112 58
-18 1 16 151 112 58
-19 -12 17 151 112 58
-18 -12 17 198 147 70
-20 -11 17 198 147 70
-19 -11 17 136 65 46
-18 -11 17 136 65 46
-17 -11 17 198 147 70
-20 -10 17 151 112 58
-19 -10 17 80 58 33
-18 -10 17 80 58 33
-17 -10 17 198 147 70
-20 -9 17 198 147 70
-19 -9 17 80 58 33
-18 -9 17 80 58 33
-17 -9 17 198 147 70
-19 -8 17 198 147 70
-18 -8 17 198 147 70
-27 -7 17 57 38 19
-26 -7 17 57 38 19
-25 -7 17 80 58 33
-24 -7 17 80 58 33
-23 -7 17 57 38 19
-22 -7 17 57 38 19
-21 -7 17 80 58 33
-20 -7 17 57 38 19
-19 -7 17 80 58 33
-18 -7 17 80 58 33
-17 -7 17 80 58 33
-16 -7 17 80 58 33
-15 -7 17 57 38 19
-27 -6 17 80 58 33
-26 -6 17 198 147 70
-25 -6 17 198 147 70
-24 -6 17 198 147 70
-23 -6 17 198 147 70
-22 -6 17 198 147 70
-21 -6 17 198 147 70
-20 -6 17 198 147 70
-19 -6 17 198 147 70
-18 -6 17 198 147 70
-17 -6 17 198 147 70
-16 -6 17 198 147 70
-27 -5 17 80 58 33
-26 -5 17 198 147 70
-25 -5 17 198 147 70
-24 -5 17 198 147 70
-23 -5 17 198 147 70
-22 -5 17 198 147 70
-21 -5 17 198 147 70
-20 -5 17 198 147 70
-19 -5 17 198 147 70
-18 -5 17 198 147 70
-17 -5 17 198 147 70
-16 -5 17 198 147 70
-27 -4 17 57 38 19
-26 -4 17 57 38 19
-25 -4 17 80 58 33
-24 -4 17 80 58 33
-23 -4 17 57 38 19
-22 -4 17 57 38 19
-21 -4 17 80 58 33
-20 -4 17 57 38 19
-19 -4 17 80 58 33
-18 -4 17 80 58 33
-17 -4 17 80 58 33
-16 -4 17 80 58 33
-15 -4 17 57 38 19
-19 -3 17 198 147 70
-18 -3 17 198 147 70
-20 -2 17 198 147 70
-19 -2 17 80 58 33
-18 -2 17 80 58 33
-17 -2 17 198 147 70
-20 -1 17 151 112 58
-19 -1 17 80 58 33
-18 -1 17 80 58 33
-17 -1 17 198 147 70
-20 0 17 198 147 70
-19 0 17 136 65 46
-18 0 17 136 65 46
-17 0 17 198 147 70
-19 1 17 151 112 58
-18 1 17 198 147 70
-19 -12 18 198 147 70
-18 -12 18 198 147 70
-20 -11 18 198 147 70
-19 -11 18 198 147 70
-18 -11 18 80 58 33
-17 -11 18 198 147 70
-20 -10 18 198 147 70
-19 -10 18 80 58 33
-18 -10 18 80 58 33
-17 -10 18 198 147 70
-20 -9 18 198 147 70
-19 -9 18 136 65 46
-18 -9 18 80 58 33
-17 -9 18 198 147 70
-19 -8 18 198 147 70
-18 -8 18 198 147 70
-27 -6 18 80 58 33
-26 -6 18 80 58 33
-25 -6 18 80 58 33
-24 -6 18 80 58 33
-23 -6 18 80 58 33
-22 -6 18 80 58 33
-21 -6 18 80 58 33
-20 -6 18 80 58 33
-19 -6 18 80 58 33
-18 -6 18 80 58 33
-17 -6 18 80 58 33
-16 -6 18 80 58 33
-15 -6 18 57 38 19
-27 -5 18 80 58 33
-26 -5 18 80 58 33
-25 -5 18 80 58 33
-24 -5 18 80 58 33
-23 -5 18 80 58 33
-22 -5 18 80 58 33
-21 -5 18 80 58 33
-20 -5 18 80 58 33
-19 -5 18 80 58 33
-18 -5 18 80 58 33
-17 -5 18 80 58 33
-16 -5 18 80 58 33
-15 -5 18 57 38 19
-19 -3 18 198 147 70
-18 -3 18 198 147 70
-20 -2 18 198 147 70
-19 -2 18 136 65 46
-18 -2 18 80 58 33
-17 -2 18 198 147 70
-20 -1 18 198 147 70
-19 -1 18 80 58 33
-18 -1 18 80 58 33
-17 -1 18 198 147 70
-20 0 18 198 147 70
-19 0 18 198 147 70
-18 0 18 80 58 33
-17 0 18 198 147 70
-19 1 18 198 147 70
-18 1 18 198 147 70
-18 -11 19 80 58 33
-19 -10 19 57 38 19
-18 -10 19 80 58 33
-17 -10 19 57 38 19
-18 -9 19 57 38 19
-18 -2 19 57 38 19
-19 -1 19 57 38 19
-18 -1 19 80 58 33
-17 -1 19 57 38 19
-18 0 19 80 58 33
-18 -10 20 114 114 114
-18 -1 20 114 114 114
-18 -10 21 114 114 114
-18 -1 21 114 114 114
-18 -11 22 135 138 130
-18 -10 22 114 114 114
-18 -9 22 135 138 130
-18 -2 22 135 138 130
-18 -1 22 114 114 114
-18 0 22 135 138 130
-18 -10 23 135 138 130
-18 -1 23 135 138 130
