ply
format ascii 1.0
comment : MagicaVoxel @ Ephtracy
element vertex 236
property float x
property float y
property float z
property uchar red
property uchar green
property uchar blue
end_header
10 -7 0 11 65 145
13 -7 0 57 38 19
9 -6 0 11 65 145
10 -6 0 57 38 19
11 -6 0 151 112 58
12 -6 0 151 112 58
13 -6 0 151 112 58
21 -6 0 57 38 19
10 -5 0 151 112 58
11 -5 0 151 112 58
12 -5 0 151 112 58
13 -5 0 151 112 58
21 -5 0 151 112 58
22 -5 0 151 112 58
10 -4 0 151 112 58
11 -4 0 151 112 58
12 -4 0 151 112 58
21 -4 0 151 112 58
22 -4 0 151 112 58
9 -3 0 57 38 19
10 -3 0 151 112 58
11 -3 0 151 112 58
16 -3 0 80 58 33
21 -3 0 151 112 58
22 -3 0 151 112 58
15 -2 0 80 58 33
16 -2 0 242 60 84
17 -2 0 80 58 33
21 -2 0 151 112 58
22 -2 0 151 112 58
14 -1 0 80 58 33
15 -1 0 242 60 84
16 -1 0 80 58 33
21 -1 0 57 38 19
15 0 0 80 58 33
16 0 0 243 121 21
21 0 0 57 38 19
11 1 0 135 138 130
12 1 0 86 86 86
21 1 0 151 112 58
22 1 0 151 112 58
8 2 0 57 38 19
9 2 0 57 38 19
10 2 0 57 38 19
11 2 0 57 38 19
21 2 0 151 112 58
22 2 0 151 112 58
21 3 0 151 112 58
22 3 0 151 112 58
21 4 0 151 112 58
22 4 0 151 112 58
8 5 0 57 38 19
9 5 0 57 38 19
10 5 0 57 38 19
11 5 0 57 38 19
12 5 0 86 86 86
21 5 0 57 38 19
9 6 0 135 138 130
10 6 0 114 114 114
10 -7 1 11 65 145
13 -7 1 80 58 33
9 -6 1 11 65 145
10 -6 1 80 58 33
13 -6 1 80 58 33
19 -6 1 80 58 33
20 -6 1 80 58 33
21 -6 1 80 58 33
13 -5 1 80 58 33
19 -5 1 151 112 58
20 -5 1 151 112 58
12 -4 1 80 58 33
19 -4 1 151 112 58
20 -4 1 151 112 58
9 -3 1 80 58 33
10 -3 1 80 58 33
11 -3 1 80 58 33
19 -3 1 151 112 58
20 -3 1 151 112 58
19 -2 1 151 112 58
20 -2 1 151 112 58
15 -1 1 242 60 84
19 -1 1 80 58 33
20 -1 1 80 58 33
21 -1 1 80 58 33
19 0 1 80 58 33
20 0 1 80 58 33
21 0 1 80 58 33
19 1 1 151 112 58
20 1 1 151 112 58
11 2 1 80 58 33
19 2 1 151 112 58
20 2 1 151 112 58
19 3 1 151 112 58
20 3 1 151 112 58
19 4 1 151 112 58
20 4 1 151 112 58
11 5 1 80 58 33
19 5 1 80 58 33
20 5 1 80 58 33
21 5 1 80 58 33
10 -7 2 11 65 145
11 -7 2 37 79 142
13 -7 2 80 58 33
9 -6 2 11 65 145
10 -6 2 80 58 33
21 -6 2 80 58 33
9 -5 2 11 65 145
20 -5 2 180 201 98
9 -3 2 80 58 33
19 -3 2 125 201 98
21 -1 2 80 58 33
21 0 2 80 58 33
11 2 2 80 58 33
19 2 2 242 60 84
20 3 2 243 121 21
11 5 2 80 58 33
21 5 2 80 58 33
10 -7 3 37 79 142
11 -7 3 11 65 145
13 -7 3 80 58 33
9 -6 3 37 79 142
10 -6 3 80 58 33
21 -6 3 57 38 19
9 -5 3 11 65 145
9 -4 3 37 79 142
9 -3 3 80 58 33
10 -3 3 37 79 142
21 -1 3 57 38 19
21 0 3 80 58 33
8 1 3 206 96 200
9 1 3 134 60 157
10 1 3 134 60 157
11 1 3 206 96 200
11 2 3 57 38 19
11 5 3 57 38 19
21 5 3 80 58 33
8 6 3 206 96 200
9 6 3 134 60 157
10 6 3 134 60 157
11 6 3 206 96 200
11 -7 4 11 65 145
12 -7 4 11 65 145
13 -7 4 80 58 33
10 -6 4 11 65 145
13 -6 4 11 65 145
19 -6 4 33 69 54
20 -6 4 33 69 54
21 -6 4 57 38 19
22 -6 4 33 69 54
9 -5 4 11 65 145
19 -5 4 35 88 67
20 -5 4 35 88 67
22 -5 4 35 88 67
9 -4 4 37 79 142
19 -4 4 33 69 54
20 -4 4 33 69 54
22 -4 4 33 69 54
9 -3 4 80 58 33
10 -3 4 37 79 142
19 -3 4 35 88 67
20 -3 4 35 88 67
22 -3 4 35 88 67
19 -2 4 33 69 54
20 -2 4 33 69 54
22 -2 4 33 69 54
19 -1 4 35 88 67
20 -1 4 35 88 67
21 -1 4 57 38 19
22 -1 4 35 88 67
21 0 4 57 38 19
8 2 4 206 96 200
9 2 4 134 60 157
10 2 4 134 60 157
11 2 4 206 96 200
8 3 4 134 60 157
9 3 4 206 96 200
10 3 4 206 96 200
11 3 4 134 60 157
8 4 4 134 60 157
9 4 4 206 96 200
10 4 4 206 96 200
11 4 4 134 60 157
8 5 4 206 96 200
9 5 4 134 60 157
10 5 4 134 60 157
11 5 4 206 96 200
21 5 4 57 38 19
11 -7 5 37 79 142
12 -7 5 37 79 142
13 -7 5 11 65 145
11 -6 5 11 65 145
12 -6 5 11 65 145
13 -6 5 37 79 142
21 -6 5 33 69 54
10 -5 5 11 65 145
11 -5 5 37 79 142
12 -5 5 11 65 145
13 -5 5 37 79 142
21 -5 5 35 88 67
9 -4 5 11 65 145
10 -4 5 37 79 142
11 -4 5 11 65 145
12 -4 5 37 79 142
21 -4 5 33 69 54
9 -3 5 11 65 145
10 -3 5 37 79 142
11 -3 5 11 65 145
21 -3 5 35 88 67
21 -2 5 33 69 54
21 -1 5 35 88 67
19 0 5 56 139 48
20 0 5 56 139 48
21 0 5 57 38 19
22 0 5 56 139 48
19 1 5 35 88 67
20 1 5 35 88 67
22 1 5 35 88 67
19 2 5 56 139 48
20 2 5 56 139 48
22 2 5 56 139 48
19 3 5 35 88 67
20 3 5 35 88 67
22 3 5 35 88 67
19 4 5 56 139 48
20 4 5 56 139 48
22 4 5 56 139 48
19 5 5 35 88 67
20 5 5 35 88 67
21 5 5 57 38 19
22 5 5 35 88 67
21 0 6 56 139 48
21 1 6 35 88 67
21 2 6 56 139 48
21 3 6 35 88 67
21 4 6 56 139 48
21 5 6 35 88 67
