ply
format ascii 1.0
comment : MagicaVoxel @ Ephtracy
element vertex 1024
property float x
property float y
property float z
property uchar red
property uchar green
property uchar blue
end_header
-13 3 0 151 112 58
-2 3 0 198 147 70
-13 4 0 151 112 58
-2 4 0 151 112 58
-13 5 0 198 147 70
-2 5 0 198 147 70
-13 6 0 80 58 33
-2 6 0 80 58 33
-12 7 0 80 58 33
-3 7 0 80 58 33
-12 8 0 80 58 33
-3 8 0 80 58 33
-12 9 0 80 58 33
-3 9 0 80 58 33
-12 10 0 80 58 33
-3 10 0 80 58 33
-13 11 0 80 58 33
-2 11 0 80 58 33
-13 12 0 198 147 70
-2 12 0 198 147 70
-13 13 0 151 112 58
-2 13 0 151 112 58
-13 14 0 198 147 70
-2 14 0 198 147 70
-13 15 0 80 58 33
-12 15 0 198 147 70
-11 15 0 198 147 70
-10 15 0 198 147 70
-9 15 0 198 147 70
-8 15 0 57 38 19
-7 15 0 57 38 19
-6 15 0 198 147 70
-5 15 0 198 147 70
-4 15 0 198 147 70
-3 15 0 198 147 70
-2 15 0 80 58 33
-13 3 1 151 112 58
-2 3 1 198 147 70
-13 4 1 151 112 58
-2 4 1 151 112 58
-13 5 1 198 147 70
-2 5 1 198 147 70
-13 6 1 80 58 33
-2 6 1 80 58 33
-12 7 1 80 58 33
-3 7 1 80 58 33
-12 8 1 80 58 33
-3 8 1 80 58 33
-12 9 1 80 58 33
-3 9 1 80 58 33
-12 10 1 80 58 33
-3 10 1 80 58 33
-13 11 1 80 58 33
-2 11 1 80 58 33
-13 12 1 198 147 70
-2 12 1 198 147 70
-13 13 1 198 147 70
-2 13 1 198 147 70
-13 14 1 198 147 70
-2 14 1 198 147 70
-13 15 1 80 58 33
-12 15 1 198 147 70
-11 15 1 198 147 70
-10 15 1 198 147 70
-9 15 1 198 147 70
-8 15 1 57 38 19
-7 15 1 57 38 19
-6 15 1 198 147 70
-5 15 1 198 147 70
-4 15 1 198 147 70
-3 15 1 198 147 70
-2 15 1 80 58 33
-13 3 2 151 112 58
-2 3 2 198 147 70
-13 4 2 151 112 58
-2 4 2 151 112 58
-13 5 2 198 147 70
-2 5 2 198 147 70
-13 6 2 80 58 33
-2 6 2 80 58 33
-12 7 2 80 58 33
-3 7 2 80 58 33
-12 8 2 80 58 33
-3 8 2 80 58 33
-12 9 2 80 58 33
-3 9 2 80 58 33
-12 10 2 80 58 33
-3 10 2 80 58 33
-13 11 2 80 58 33
-2 11 2 80 58 33
-13 12 2 198 147 70
-2 12 2 198 147 70
-13 13 2 151 112 58
-2 13 2 151 112 58
-13 14 2 198 147 70
-2 14 2 198 147 70
-13 15 2 80 58 33
-12 15 2 198 147 70
-11 15 2 198 147 70
-10 15 2 198 147 70
-9 15 2 198 147 70
-8 15 2 57 38 19
-7 15 2 57 38 19
-6 15 2 198 147 70
-5 15 2 198 147 70
-4 15 2 198 147 70
-3 15 2 198 147 70
-2 15 2 80 58 33
-13 3 3 151 112 58
-2 3 3 198 147 70
-13 4 3 151 112 58
-2 4 3 151 112 58
-13 5 3 198 147 70
-2 5 3 198 147 70
-13 6 3 80 58 33
-2 6 3 80 58 33
-12 7 3 80 58 33
-3 7 3 80 58 33
-12 8 3 80 58 33
-3 8 3 80 58 33
-12 9 3 80 58 33
-3 9 3 80 58 33
-12 10 3 80 58 33
-3 10 3 80 58 33
-13 11 3 80 58 33
-2 11 3 80 58 33
-13 12 3 151 112 58
-2 12 3 151 112 58
-13 13 3 198 147 70
-2 13 3 198 147 70
-13 14 3 198 147 70
-2 14 3 198 147 70
-13 15 3 80 58 33
-12 15 3 80 58 33
-11 15 3 80 58 33
-10 15 3 80 58 33
-9 15 3 80 58 33
-8 15 3 57 38 19
-7 15 3 57 38 19
-6 15 3 80 58 33
-5 15 3 80 58 33
-4 15 3 80 58 33
-3 15 3 80 58 33
-2 15 3 80 58 33
-13 3 4 151 112 58
-2 3 4 198 147 70
-13 4 4 151 112 58
-2 4 4 151 112 58
-13 5 4 198 147 70
-2 5 4 198 147 70
-13 6 4 80 58 33
-2 6 4 80 58 33
-12 7 4 80 58 33
-3 7 4 80 58 33
-12 8 4 80 58 33
-3 8 4 80 58 33
-12 9 4 80 58 33
-3 9 4 80 58 33
-12 10 4 80 58 33
-3 10 4 80 58 33
-13 11 4 80 58 33
-2 11 4 80 58 33
-13 12 4 198 147 70
-2 12 4 198 147 70
-13 13 4 198 147 70
-2 13 4 198 147 70
-13 14 4 198 147 70
-2 14 4 198 147 70
-13 15 4 80 58 33
-12 15 4 198 147 70
-11 15 4 198 147 70
-10 15 4 198 147 70
-9 15 4 198 147 70
-8 15 4 80 58 33
-7 15 4 80 58 33
-6 15 4 198 147 70
-5 15 4 198 147 70
-4 15 4 198 147 70
-3 15 4 198 147 70
-2 15 4 80 58 33
-13 3 5 151 112 58
-2 3 5 198 147 70
-13 4 5 151 112 58
-2 4 5 151 112 58
-13 5 5 198 147 70
-2 5 5 198 147 70
-13 6 5 80 58 33
-2 6 5 80 58 33
-12 7 5 80 58 33
-3 7 5 80 58 33
-12 8 5 80 58 33
-3 8 5 80 58 33
-12 9 5 80 58 33
-3 9 5 80 58 33
-12 10 5 80 58 33
-3 10 5 80 58 33
-13 11 5 80 58 33
-2 11 5 80 58 33
-13 12 5 151 112 58
-2 12 5 151 112 58
-13 13 5 198 147 70
-2 13 5 198 147 70
-13 14 5 198 147 70
-2 14 5 198 147 70
-13 15 5 80 58 33
-12 15 5 198 147 70
-11 15 5 198 147 70
-10 15 5 198 147 70
-9 15 5 80 58 33
-8 15 5 80 58 33
-7 15 5 80 58 33
-6 15 5 80 58 33
-5 15 5 198 147 70
-4 15 5 198 147 70
-3 15 5 198 147 70
-2 15 5 80 58 33
-13 3 6 198 147 70
-2 3 6 198 147 70
-13 4 6 198 147 70
-2 4 6 198 147 70
-13 5 6 198 147 70
-2 5 6 198 147 70
-13 6 6 198 147 70
-2 6 6 198 147 70
-13 7 6 80 58 33
-2 7 6 80 58 33
-13 8 6 80 58 33
-2 8 6 80 58 33
-13 9 6 80 58 33
-2 9 6 80 58 33
-13 10 6 80 58 33
-2 10 6 80 58 33
-13 11 6 198 147 70
-2 11 6 198 147 70
-13 12 6 198 147 70
-2 12 6 198 147 70
-13 13 6 198 147 70
-2 13 6 198 147 70
-13 14 6 198 147 70
-2 14 6 198 147 70
-13 15 6 80 58 33
-12 15 6 198 147 70
-11 15 6 198 147 70
-10 15 6 198 147 70
-9 15 6 57 38 19
-8 15 6 57 38 19
-7 15 6 57 38 19
-6 15 6 57 38 19
-5 15 6 198 147 70
-4 15 6 198 147 70
-3 15 6 198 147 70
-2 15 6 80 58 33
-13 3 7 151 112 58
-2 3 7 151 112 58
-13 4 7 151 112 58
-2 4 7 151 112 58
-13 5 7 151 112 58
-2 5 7 151 112 58
-13 6 7 151 112 58
-2 6 7 151 112 58
-13 7 7 151 112 58
-2 7 7 151 112 58
-13 8 7 151 112 58
-2 8 7 151 112 58
-13 9 7 151 112 58
-2 9 7 151 112 58
-13 10 7 151 112 58
-2 10 7 151 112 58
-13 11 7 151 112 58
-2 11 7 151 112 58
-13 12 7 151 112 58
-2 12 7 151 112 58
-13 13 7 151 112 58
-2 13 7 151 112 58
-13 14 7 151 112 58
-2 14 7 151 112 58
-13 15 7 80 58 33
-12 15 7 198 147 70
-11 15 7 198 147 70
-10 15 7 198 147 70
-9 15 7 198 147 70
-8 15 7 57 38 19
-7 15 7 57 38 19
-6 15 7 198 147 70
-5 15 7 198 147 70
-4 15 7 198 147 70
-3 15 7 198 147 70
-2 15 7 80 58 33
-13 3 8 57 38 19
-2 3 8 57 38 19
-13 4 8 57 38 19
-2 4 8 57 38 19
-13 5 8 57 38 19
-2 5 8 57 38 19
-13 6 8 80 58 33
-2 6 8 80 58 33
-13 7 8 80 58 33
-2 7 8 80 58 33
-13 8 8 57 38 19
-2 8 8 57 38 19
-13 9 8 57 38 19
-2 9 8 57 38 19
-13 10 8 57 38 19
-2 10 8 57 38 19
-13 11 8 57 38 19
-2 11 8 57 38 19
-13 12 8 57 38 19
-2 12 8 57 38 19
-13 13 8 80 58 33
-2 13 8 80 58 33
-13 14 8 57 38 19
-2 14 8 57 38 19
-13 15 8 57 38 19
-12 15 8 151 112 58
-11 15 8 198 147 70
-10 15 8 198 147 70
-9 15 8 198 147 70
-8 15 8 198 147 70
-7 15 8 198 147 70
-6 15 8 198 147 70
-5 15 8 198 147 70
-4 15 8 198 147 70
-3 15 8 151 112 58
-2 15 8 57 38 19
-13 16 8 80 58 33
-2 16 8 80 58 33
-12 3 9 57 38 19
-3 3 9 57 38 19
-12 4 9 57 38 19
-3 4 9 57 38 19
-12 5 9 80 58 33
-3 5 9 80 58 33
-12 6 9 57 38 19
-3 6 9 57 38 19
-12 7 9 80 58 33
-3 7 9 80 58 33
-12 8 9 57 38 19
-3 8 9 57 38 19
-12 9 9 57 38 19
-3 9 9 57 38 19
-12 10 9 57 38 19
-3 10 9 57 38 19
-12 11 9 80 58 33
-3 11 9 80 58 33
-12 12 9 57 38 19
-3 12 9 57 38 19
-12 13 9 57 38 19
-11 13 9 80 58 33
-10 13 9 80 58 33
-9 13 9 80 58 33
-8 13 9 80 58 33
-7 13 9 80 58 33
-6 13 9 80 58 33
-5 13 9 80 58 33
-4 13 9 80 58 33
-3 13 9 57 38 19
-12 14 9 80 58 33
-11 14 9 80 58 33
-10 14 9 80 58 33
-9 14 9 80 58 33
-8 14 9 80 58 33
-7 14 9 80 58 33
-6 14 9 80 58 33
-5 14 9 80 58 33
-4 14 9 80 58 33
-3 14 9 80 58 33
-12 15 9 57 38 19
-11 15 9 57 38 19
-10 15 9 198 147 70
-9 15 9 198 147 70
-8 15 9 198 147 70
-7 15 9 198 147 70
-6 15 9 198 147 70
-5 15 9 198 147 70
-4 15 9 57 38 19
-3 15 9 57 38 19
-12 16 9 80 58 33
-3 16 9 80 58 33
-11 3 10 57 38 19
-4 3 10 57 38 19
-11 4 10 57 38 19
-4 4 10 57 38 19
-11 5 10 80 58 33
-4 5 10 80 58 33
-11 6 10 80 58 33
-4 6 10 80 58 33
-11 7 10 80 58 33
-4 7 10 80 58 33
-11 8 10 57 38 19
-4 8 10 57 38 19
-11 9 10 57 38 19
-4 9 10 57 38 19
-11 10 10 57 38 19
-4 10 10 57 38 19
-11 11 10 80 58 33
-4 11 10 80 58 33
-11 12 10 57 38 19
-10 12 10 80 58 33
-9 12 10 80 58 33
-8 12 10 80 58 33
-7 12 10 80 58 33
-6 12 10 80 58 33
-5 12 10 80 58 33
-4 12 10 57 38 19
-11 13 10 57 38 19
-10 13 10 80 58 33
-9 13 10 80 58 33
-8 13 10 80 58 33
-7 13 10 80 58 33
-6 13 10 80 58 33
-5 13 10 80 58 33
-4 13 10 57 38 19
-11 14 10 80 58 33
-10 14 10 80 58 33
-9 14 10 80 58 33
-8 14 10 80 58 33
-7 14 10 80 58 33
-6 14 10 80 58 33
-5 14 10 80 58 33
-4 14 10 80 58 33
-11 15 10 57 38 19
-10 15 10 80 58 33
-9 15 10 80 58 33
-8 15 10 80 58 33
-7 15 10 80 58 33
-6 15 10 80 58 33
-5 15 10 80 58 33
-4 15 10 57 38 19
-11 16 10 80 58 33
-4 16 10 80 58 33
-11 3 11 57 38 19
-10 3 11 80 58 33
-5 3 11 80 58 33
-4 3 11 57 38 19
-11 4 11 57 38 19
-10 4 11 80 58 33
-5 4 11 80 58 33
-4 4 11 57 38 19
-11 5 11 57 38 19
-10 5 11 80 58 33
-5 5 11 80 58 33
-4 5 11 57 38 19
-11 6 11 80 58 33
-10 6 11 80 58 33
-5 6 11 80 58 33
-4 6 11 80 58 33
-11 7 11 80 58 33
-10 7 11 80 58 33
-5 7 11 80 58 33
-4 7 11 80 58 33
-11 8 11 80 58 33
-10 8 11 80 58 33
-5 8 11 80 58 33
-4 8 11 80 58 33
-11 9 11 57 38 19
-10 9 11 80 58 33
-5 9 11 80 58 33
-4 9 11 57 38 19
-11 10 11 80 58 33
-10 10 11 80 58 33
-5 10 11 80 58 33
-4 10 11 80 58 33
-11 11 11 57 38 19
-10 11 11 57 38 19
-9 11 11 80 58 33
-8 11 11 80 58 33
-7 11 11 80 58 33
-6 11 11 80 58 33
-5 11 11 57 38 19
-4 11 11 57 38 19
-11 12 11 57 38 19
-10 12 11 80 58 33
-9 12 11 80 58 33
-8 12 11 80 58 33
-7 12 11 80 58 33
-6 12 11 80 58 33
-5 12 11 80 58 33
-4 12 11 57 38 19
-11 13 11 80 58 33
-10 13 11 80 58 33
-9 13 11 80 58 33
-8 13 11 80 58 33
-7 13 11 80 58 33
-6 13 11 80 58 33
-5 13 11 80 58 33
-4 13 11 80 58 33
-11 14 11 57 38 19
-10 14 11 80 58 33
-9 14 11 80 58 33
-8 14 11 80 58 33
-7 14 11 80 58 33
-6 14 11 80 58 33
-5 14 11 80 58 33
-4 14 11 57 38 19
-11 15 11 57 38 19
-10 15 11 57 38 19
-9 15 11 198 147 70
-8 15 11 198 147 70
-7 15 11 198 147 70
-6 15 11 198 147 70
-5 15 11 57 38 19
-4 15 11 57 38 19
-11 16 11 57 38 19
-8 16 11 80 58 33
-7 16 11 80 58 33
-4 16 11 57 38 19
-10 3 12 57 38 19
-9 3 12 80 58 33
-8 3 12 80 58 33
-7 3 12 80 58 33
-6 3 12 80 58 33
-5 3 12 57 38 19
-10 4 12 57 38 19
-9 4 12 80 58 33
-8 4 12 80 58 33
-7 4 12 80 58 33
-6 4 12 80 58 33
-5 4 12 57 38 19
-10 5 12 80 58 33
-9 5 12 80 58 33
-8 5 12 80 58 33
-7 5 12 80 58 33
-6 5 12 80 58 33
-5 5 12 80 58 33
-10 6 12 57 38 19
-9 6 12 80 58 33
-8 6 12 80 58 33
-7 6 12 80 58 33
-6 6 12 80 58 33
-5 6 12 57 38 19
-10 7 12 80 58 33
-5 7 12 80 58 33
-11 8 12 151 112 58
-10 8 12 80 58 33
-5 8 12 80 58 33
-4 8 12 151 112 58
-11 9 12 198 147 70
-10 9 12 80 58 33
-5 9 12 80 58 33
-4 9 12 198 147 70
-10 10 12 80 58 33
-5 10 12 80 58 33
-10 11 12 57 38 19
-9 11 12 80 58 33
-8 11 12 80 58 33
-7 11 12 80 58 33
-6 11 12 80 58 33
-5 11 12 57 38 19
-10 12 12 57 38 19
-9 12 12 80 58 33
-8 12 12 80 58 33
-7 12 12 80 58 33
-6 12 12 80 58 33
-5 12 12 57 38 19
-10 13 12 57 38 19
-9 13 12 80 58 33
-8 13 12 80 58 33
-7 13 12 80 58 33
-6 13 12 80 58 33
-5 13 12 57 38 19
-10 14 12 80 58 33
-9 14 12 80 58 33
-8 14 12 80 58 33
-7 14 12 80 58 33
-6 14 12 80 58 33
-5 14 12 80 58 33
-10 15 12 57 38 19
-9 15 12 198 147 70
-8 15 12 198 147 70
-7 15 12 198 147 70
-6 15 12 198 147 70
-5 15 12 57 38 19
-10 16 12 57 38 19
-8 16 12 80 58 33
-7 16 12 80 58 33
-5 16 12 57 38 19
-10 3 13 57 38 19
-9 3 13 80 58 33
-8 3 13 80 58 33
-7 3 13 80 58 33
-6 3 13 80 58 33
-5 3 13 57 38 19
-10 4 13 57 38 19
-9 4 13 57 38 19
-8 4 13 80 58 33
-7 4 13 80 58 33
-6 4 13 57 38 19
-5 4 13 57 38 19
-10 5 13 57 38 19
-9 5 13 80 58 33
-8 5 13 80 58 33
-7 5 13 80 58 33
-6 5 13 80 58 33
-5 5 13 57 38 19
-10 6 13 57 38 19
-9 6 13 80 58 33
-8 6 13 80 58 33
-7 6 13 80 58 33
-6 6 13 80 58 33
-5 6 13 57 38 19
-10 7 13 80 58 33
-5 7 13 80 58 33
-11 8 13 151 112 58
-10 8 13 80 58 33
-5 8 13 80 58 33
-4 8 13 151 112 58
-11 9 13 151 112 58
-10 9 13 151 112 58
-5 9 13 151 112 58
-4 9 13 151 112 58
-10 10 13 151 112 58
-5 10 13 151 112 58
-10 11 13 80 58 33
-9 11 13 80 58 33
-8 11 13 80 58 33
-7 11 13 80 58 33
-6 11 13 80 58 33
-5 11 13 80 58 33
-10 12 13 57 38 19
-9 12 13 80 58 33
-8 12 13 80 58 33
-7 12 13 80 58 33
-6 12 13 80 58 33
-5 12 13 57 38 19
-10 13 13 57 38 19
-9 13 13 80 58 33
-8 13 13 80 58 33
-7 13 13 80 58 33
-6 13 13 80 58 33
-5 13 13 57 38 19
-10 14 13 80 58 33
-9 14 13 80 58 33
-8 14 13 80 58 33
-7 14 13 80 58 33
-6 14 13 80 58 33
-5 14 13 80 58 33
-10 15 13 57 38 19
-9 15 13 151 112 58
-8 15 13 198 147 70
-7 15 13 198 147 70
-6 15 13 151 112 58
-5 15 13 57 38 19
-10 16 13 80 58 33
-5 16 13 80 58 33
-9 3 14 57 38 19
-8 3 14 80 58 33
-7 3 14 80 58 33
-6 3 14 80 58 33
-9 4 14 57 38 19
-8 4 14 80 58 33
-7 4 14 80 58 33
-6 4 14 80 58 33
-9 5 14 80 58 33
-8 5 14 80 58 33
-7 5 14 80 58 33
-6 5 14 80 58 33
-9 6 14 80 58 33
-8 6 14 80 58 33
-7 6 14 80 58 33
-6 6 14 80 58 33
-10 7 14 198 147 70
-5 7 14 198 147 70
-11 8 14 198 147 70
-10 8 14 80 58 33
-5 8 14 80 58 33
-4 8 14 198 147 70
-11 9 14 151 112 58
-10 9 14 151 112 58
-5 9 14 151 112 58
-4 9 14 151 112 58
-10 10 14 151 112 58
-5 10 14 151 112 58
-9 11 14 80 58 33
-8 11 14 80 58 33
-7 11 14 80 58 33
-6 11 14 80 58 33
-9 12 14 57 38 19
-8 12 14 80 58 33
-7 12 14 80 58 33
-6 12 14 57 38 19
-9 13 14 57 38 19
-8 13 14 80 58 33
-7 13 14 80 58 33
-6 13 14 57 38 19
-9 14 14 57 38 19
-8 14 14 80 58 33
-7 14 14 80 58 33
-6 14 14 57 38 19
-9 15 14 80 58 33
-8 15 14 198 147 70
-7 15 14 198 147 70
-6 15 14 80 58 33
-9 16 14 80 58 33
-6 16 14 80 58 33
-9 3 15 57 38 19
-8 3 15 57 38 19
-7 3 15 57 38 19
-6 3 15 57 38 19
-9 4 15 57 38 19
-8 4 15 80 58 33
-7 4 15 80 58 33
-6 4 15 80 58 33
-9 5 15 80 58 33
-8 5 15 80 58 33
-7 5 15 80 58 33
-6 5 15 80 58 33
-9 6 15 80 58 33
-8 6 15 80 58 33
-7 6 15 80 58 33
-6 6 15 80 58 33
-10 7 15 198 147 70
-5 7 15 198 147 70
-11 8 15 151 112 58
-10 8 15 80 58 33
-5 8 15 80 58 33
-4 8 15 151 112 58
-11 9 15 151 112 58
-10 9 15 151 112 58
-5 9 15 151 112 58
-4 9 15 151 112 58
-10 10 15 151 112 58
-5 10 15 151 112 58
-9 11 15 80 58 33
-8 11 15 80 58 33
-7 11 15 80 58 33
-6 11 15 80 58 33
-9 12 15 57 38 19
-8 12 15 80 58 33
-7 12 15 80 58 33
-6 12 15 57 38 19
-9 13 15 80 58 33
-8 13 15 80 58 33
-7 13 15 80 58 33
-6 13 15 80 58 33
-9 14 15 57 38 19
-8 14 15 80 58 33
-7 14 15 80 58 33
-6 14 15 57 38 19
-9 15 15 57 38 19
-8 15 15 151 112 58
-7 15 15 151 112 58
-6 15 15 57 38 19
-9 16 15 80 58 33
-6 16 15 80 58 33
-8 3 16 57 38 19
-7 3 16 57 38 19
-8 4 16 57 38 19
-7 4 16 80 58 33
-8 5 16 80 58 33
-7 5 16 80 58 33
-9 6 16 151 112 58
-8 6 16 80 58 33
-7 6 16 80 58 33
-6 6 16 151 112 58
-10 7 16 198 147 70
-5 7 16 198 147 70
-11 8 16 151 112 58
-10 8 16 198 147 70
-5 8 16 198 147 70
-4 8 16 151 112 58
-11 9 16 151 112 58
-10 9 16 198 147 70
-5 9 16 198 147 70
-4 9 16 151 112 58
-10 10 16 198 147 70
-5 10 16 198 147 70
-9 11 16 151 112 58
-8 11 16 80 58 33
-7 11 16 80 58 33
-6 11 16 151 112 58
-8 12 16 80 58 33
-7 12 16 80 58 33
-8 13 16 80 58 33
-7 13 16 80 58 33
-8 14 16 80 58 33
-7 14 16 80 58 33
-8 15 16 80 58 33
-7 15 16 80 58 33
-8 16 16 57 38 19
-7 16 16 57 38 19
-8 3 17 57 38 19
-7 3 17 80 58 33
-8 4 17 57 38 19
-7 4 17 80 58 33
-8 5 17 80 58 33
-7 5 17 80 58 33
-9 6 17 198 147 70
-8 6 17 80 58 33
-7 6 17 80 58 33
-6 6 17 198 147 70
-10 7 17 198 147 70
-5 7 17 198 147 70
-11 8 17 198 147 70
-10 8 17 198 147 70
-5 8 17 198 147 70
-4 8 17 198 147 70
-11 9 17 198 147 70
-10 9 17 198 147 70
-5 9 17 198 147 70
-4 9 17 198 147 70
-10 10 17 198 147 70
-5 10 17 198 147 70
-9 11 17 198 147 70
-8 11 17 80 58 33
-7 11 17 80 58 33
-6 11 17 198 147 70
-8 12 17 80 58 33
-7 12 17 80 58 33
-8 13 17 80 58 33
-7 13 17 80 58 33
-8 14 17 80 58 33
-7 14 17 80 58 33
-8 15 17 80 58 33
-7 15 17 80 58 33
-8 16 17 80 58 33
-7 16 17 80 58 33
-8 5 18 57 38 19
-7 5 18 57 38 19
-9 6 18 151 112 58
-8 6 18 198 147 70
-7 6 18 198 147 70
-6 6 18 151 112 58
-10 7 18 198 147 70
-5 7 18 198 147 70
-10 8 18 248 233 68
-5 8 18 248 233 68
-10 9 18 248 233 68
-5 9 18 248 233 68
-10 10 18 151 112 58
-5 10 18 151 112 58
-9 11 18 151 112 58
-8 11 18 80 58 33
-7 11 18 80 58 33
-6 11 18 151 112 58
-8 12 18 57 38 19
-7 12 18 57 38 19
-8 5 19 57 38 19
-7 5 19 57 38 19
-9 6 19 198 147 70
-8 6 19 198 147 70
-7 6 19 198 147 70
-6 6 19 198 147 70
-10 7 19 198 147 70
-5 7 19 198 147 70
-10 8 19 248 233 68
-5 8 19 248 233 68
-10 9 19 248 233 68
-5 9 19 248 233 68
-10 10 19 198 147 70
-5 10 19 198 147 70
-9 11 19 198 147 70
-8 11 19 80 58 33
-7 11 19 80 58 33
-6 11 19 198 147 70
-8 12 19 80 58 33
-7 12 19 80 58 33
-8 5 20 57 38 19
-7 5 20 57 38 19
-9 6 20 198 147 70
-8 6 20 198 147 70
-7 6 20 198 147 70
-6 6 20 198 147 70
-10 7 20 151 112 58
-5 7 20 151 112 58
-11 8 20 198 147 70
-10 8 20 198 147 70
-5 8 20 198 147 70
-4 8 20 198 147 70
-11 9 20 198 147 70
-10 9 20 198 147 70
-5 9 20 198 147 70
-4 9 20 198 147 70
-10 10 20 198 147 70
-5 10 20 198 147 70
-9 11 20 198 147 70
-8 11 20 80 58 33
-7 11 20 80 58 33
-6 11 20 198 147 70
-8 12 20 57 38 19
-7 12 20 57 38 19
-8 5 21 57 38 19
-7 5 21 57 38 19
-9 6 21 80 58 33
-8 6 21 198 147 70
-7 6 21 198 147 70
-6 6 21 80 58 33
-10 7 21 80 58 33
-5 7 21 80 58 33
-11 8 21 80 58 33
-10 8 21 80 58 33
-5 8 21 80 58 33
-4 8 21 80 58 33
-11 9 21 80 58 33
-10 9 21 80 58 33
-5 9 21 80 58 33
-4 9 21 80 58 33
-10 10 21 80 58 33
-5 10 21 80 58 33
-9 11 21 80 58 33
-8 11 21 80 58 33
-7 11 21 80 58 33
-6 11 21 80 58 33
-8 12 21 80 58 33
-7 12 21 80 58 33
-8 6 22 198 147 70
-7 6 22 198 147 70
-9 7 22 151 112 58
-8 7 22 198 147 70
-7 7 22 198 147 70
-6 7 22 151 112 58
-10 8 22 198 147 70
-9 8 22 198 147 70
-8 8 22 198 147 70
-7 8 22 198 147 70
-6 8 22 198 147 70
-5 8 22 198 147 70
-10 9 22 198 147 70
-9 9 22 198 147 70
-8 9 22 198 147 70
-7 9 22 198 147 70
-6 9 22 198 147 70
-5 9 22 198 147 70
-9 10 22 198 147 70
-8 10 22 198 147 70
-7 10 22 198 147 70
-6 10 22 198 147 70
-8 11 22 198 147 70
-7 11 22 198 147 70
-9 5 23 136 65 46
-8 5 23 136 65 46
-7 5 23 136 65 46
-6 5 23 136 65 46
-10 6 23 136 65 46
-9 6 23 181 88 63
-8 6 23 136 65 46
-7 6 23 136 65 46
-6 6 23 181 88 63
-5 6 23 136 65 46
-11 7 23 136 65 46
-10 7 23 181 88 63
-9 7 23 136 65 46
-8 7 23 136 65 46
-7 7 23 136 65 46
-6 7 23 136 65 46
-5 7 23 181 88 63
-4 7 23 136 65 46
-11 8 23 136 65 46
-10 8 23 136 65 46
-9 8 23 136 65 46
-8 8 23 136 65 46
-7 8 23 136 65 46
-6 8 23 136 65 46
-5 8 23 136 65 46
-4 8 23 136 65 46
-11 9 23 181 88 63
-10 9 23 181 88 63
-9 9 23 136 65 46
-8 9 23 136 65 46
-7 9 23 136 65 46
-6 9 23 136 65 46
-5 9 23 181 88 63
-4 9 23 181 88 63
-11 10 23 136 65 46
-10 10 23 136 65 46
-9 10 23 136 65 46
-8 10 23 136 65 46
-7 10 23 136 65 46
-6 10 23 136 65 46
-5 10 23 136 65 46
-4 10 23 136 65 46
-10 11 23 136 65 46
-9 11 23 136 65 46
-8 11 23 136 65 46
-7 11 23 136 65 46
-6 11 23 136 65 46
-5 11 23 136 65 46
-9 12 23 136 65 46
-8 12 23 136 65 46
-7 12 23 136 65 46
-6 12 23 136 65 46
-8 6 24 181 88 63
-7 6 24 181 88 63
-9 7 24 136 65 46
-8 7 24 136 65 46
-7 7 24 136 65 46
-6 7 24 136 65 46
-10 8 24 136 65 46
-9 8 24 136 65 46
-8 8 24 136 65 46
-7 8 24 136 65 46
-6 8 24 136 65 46
-5 8 24 136 65 46
-10 9 24 136 65 46
-9 9 24 136 65 46
-8 9 24 136 65 46
-7 9 24 136 65 46
-6 9 24 136 65 46
-5 9 24 136 65 46
-9 10 24 136 65 46
-8 10 24 181 88 63
-7 10 24 181 88 63
-6 10 24 136 65 46
-8 11 24 136 65 46
-7 11 24 136 65 46
-8 7 25 181 88 63
-7 7 25 181 88 63
-9 8 25 181 88 63
-8 8 25 136 65 46
-7 8 25 136 65 46
-6 8 25 181 88 63
-9 9 25 181 88 63
-8 9 25 136 65 46
-7 9 25 136 65 46
-6 9 25 181 88 63
-8 10 25 181 88 63
-7 10 25 181 88 63
-8 8 26 181 88 63
-7 8 26 181 88 63
-8 9 26 136 65 46
-7 9 26 136 65 46
-8 8 27 181 88 63
-7 8 27 181 88 63
-8 9 27 181 88 63
-7 9 27 181 88 63
