ply
format ascii 1.0
comment : MagicaVoxel @ Ephtracy
element vertex 885
property float x
property float y
property float z
property uchar red
property uchar green
property uchar blue
end_header
-6 9 0 57 38 19
-5 9 0 198 147 70
-4 9 0 151 112 58
-3 9 0 198 147 70
-2 9 0 151 112 58
-1 9 0 198 147 70
0 9 0 198 147 70
1 9 0 198 147 70
2 9 0 151 112 58
3 9 0 198 147 70
4 9 0 151 112 58
5 9 0 57 38 19
-6 13 0 57 38 19
-5 13 0 57 38 19
-3 13 0 57 38 19
-2 13 0 57 38 19
-1 13 0 57 38 19
0 13 0 57 38 19
1 13 0 57 38 19
2 13 0 57 38 19
3 13 0 57 38 19
4 13 0 57 38 19
5 13 0 57 38 19
-6 14 0 80 58 33
-4 14 0 54 54 54
5 14 0 80 58 33
-6 15 0 80 58 33
5 15 0 80 58 33
-6 16 0 80 58 33
5 16 0 80 58 33
-6 17 0 57 38 19
5 17 0 57 38 19
-6 18 0 80 58 33
5 18 0 80 58 33
-6 19 0 80 58 33
5 19 0 80 58 33
-6 20 0 80 58 33
5 20 0 80 58 33
-6 21 0 57 38 19
-5 21 0 80 58 33
-4 21 0 80 58 33
-3 21 0 80 58 33
-2 21 0 57 38 19
-1 21 0 80 58 33
0 21 0 80 58 33
1 21 0 57 38 19
2 21 0 80 58 33
3 21 0 80 58 33
4 21 0 80 58 33
5 21 0 57 38 19
-6 9 1 80 58 33
5 9 1 80 58 33
-6 13 1 80 58 33
-5 13 1 198 147 70
-3 13 1 198 147 70
-2 13 1 57 38 19
-1 13 1 198 147 70
0 13 1 198 147 70
1 13 1 57 38 19
2 13 1 198 147 70
3 13 1 198 147 70
4 13 1 198 147 70
5 13 1 80 58 33
-6 14 1 198 147 70
-4 14 1 54 54 54
5 14 1 198 147 70
-6 15 1 198 147 70
5 15 1 198 147 70
-6 16 1 198 147 70
5 16 1 198 147 70
-6 17 1 80 58 33
5 17 1 80 58 33
-6 18 1 198 147 70
5 18 1 198 147 70
-6 19 1 198 147 70
5 19 1 198 147 70
-6 20 1 198 147 70
5 20 1 198 147 70
-6 21 1 80 58 33
-5 21 1 198 147 70
-4 21 1 198 147 70
-3 21 1 198 147 70
-2 21 1 80 58 33
-1 21 1 198 147 70
0 21 1 198 147 70
1 21 1 80 58 33
2 21 1 198 147 70
3 21 1 198 147 70
4 21 1 198 147 70
5 21 1 80 58 33
-6 9 2 80 58 33
5 9 2 80 58 33
-6 13 2 80 58 33
-5 13 2 198 147 70
-4 13 2 198 147 70
-3 13 2 198 147 70
-2 13 2 80 58 33
-1 13 2 198 147 70
0 13 2 198 147 70
1 13 2 80 58 33
2 13 2 198 147 70
3 13 2 198 147 70
4 13 2 198 147 70
5 13 2 80 58 33
-6 14 2 198 147 70
-4 14 2 54 54 54
5 14 2 198 147 70
-5 15 2 54 54 54
4 15 2 255 225 0
-6 16 2 198 147 70
5 16 2 198 147 70
-6 17 2 80 58 33
5 17 2 80 58 33
-6 18 2 198 147 70
5 18 2 198 147 70
-5 19 2 255 225 0
4 19 2 54 54 54
-6 20 2 198 147 70
-4 20 2 255 225 0
3 20 2 54 54 54
5 20 2 198 147 70
-6 21 2 80 58 33
-5 21 2 198 147 70
-3 21 2 198 147 70
-2 21 2 80 58 33
-1 21 2 198 147 70
0 21 2 198 147 70
1 21 2 80 58 33
2 21 2 198 147 70
4 21 2 198 147 70
5 21 2 80 58 33
-6 8 3 136 65 46
-5 8 3 181 88 63
-4 8 3 136 65 46
-3 8 3 136 65 46
-2 8 3 136 65 46
-1 8 3 181 88 63
0 8 3 181 88 63
1 8 3 136 65 46
2 8 3 136 65 46
3 8 3 181 88 63
4 8 3 136 65 46
5 8 3 136 65 46
-6 9 3 80 58 33
5 9 3 80 58 33
-6 10 3 80 58 33
-2 10 3 80 58 33
1 10 3 80 58 33
5 10 3 80 58 33
-6 11 3 80 58 33
-2 11 3 80 58 33
1 11 3 80 58 33
5 11 3 80 58 33
-6 12 3 80 58 33
-2 12 3 80 58 33
1 12 3 80 58 33
5 12 3 80 58 33
-6 13 3 80 58 33
-5 13 3 198 147 70
-4 13 3 198 147 70
-3 13 3 198 147 70
-2 13 3 80 58 33
-1 13 3 198 147 70
0 13 3 198 147 70
1 13 3 80 58 33
2 13 3 198 147 70
3 13 3 198 147 70
4 13 3 198 147 70
5 13 3 80 58 33
-6 14 3 198 147 70
5 14 3 198 147 70
-5 15 3 54 54 54
4 15 3 255 225 0
-6 16 3 198 147 70
5 16 3 198 147 70
-6 17 3 80 58 33
5 17 3 80 58 33
-6 18 3 198 147 70
5 18 3 198 147 70
-5 19 3 255 225 0
4 19 3 54 54 54
-6 20 3 198 147 70
-4 20 3 255 225 0
3 20 3 54 54 54
5 20 3 198 147 70
-6 21 3 80 58 33
-5 21 3 198 147 70
-3 21 3 198 147 70
-2 21 3 80 58 33
-1 21 3 198 147 70
0 21 3 198 147 70
1 21 3 80 58 33
2 21 3 198 147 70
4 21 3 198 147 70
5 21 3 80 58 33
-6 9 4 136 65 46
-5 9 4 181 88 63
-4 9 4 136 65 46
-3 9 4 181 88 63
-2 9 4 136 65 46
-1 9 4 136 65 46
0 9 4 181 88 63
1 9 4 136 65 46
2 9 4 136 65 46
3 9 4 136 65 46
4 9 4 181 88 63
5 9 4 136 65 46
-6 10 4 181 88 63
-5 10 4 136 65 46
-4 10 4 136 65 46
-3 10 4 136 65 46
-2 10 4 181 88 63
-1 10 4 136 65 46
0 10 4 136 65 46
1 10 4 181 88 63
2 10 4 181 88 63
3 10 4 136 65 46
4 10 4 136 65 46
5 10 4 181 88 63
-6 13 4 80 58 33
-5 13 4 198 147 70
-4 13 4 198 147 70
-3 13 4 198 147 70
-2 13 4 80 58 33
-1 13 4 198 147 70
0 13 4 198 147 70
1 13 4 80 58 33
2 13 4 198 147 70
3 13 4 198 147 70
4 13 4 198 147 70
5 13 4 80 58 33
-6 14 4 198 147 70
5 14 4 198 147 70
-6 15 4 198 147 70
5 15 4 198 147 70
-6 16 4 198 147 70
5 16 4 198 147 70
-6 17 4 80 58 33
5 17 4 80 58 33
-6 18 4 198 147 70
5 18 4 198 147 70
-6 19 4 198 147 70
5 19 4 198 147 70
-6 20 4 198 147 70
5 20 4 198 147 70
-6 21 4 80 58 33
-5 21 4 198 147 70
-4 21 4 198 147 70
-3 21 4 198 147 70
-2 21 4 80 58 33
-1 21 4 198 147 70
0 21 4 198 147 70
1 21 4 80 58 33
2 21 4 198 147 70
3 21 4 198 147 70
4 21 4 198 147 70
5 21 4 80 58 33
-6 11 5 136 65 46
-5 11 5 181 88 63
-4 11 5 181 88 63
-3 11 5 181 88 63
-2 11 5 181 88 63
-1 11 5 136 65 46
0 11 5 136 65 46
1 11 5 136 65 46
2 11 5 136 65 46
3 11 5 181 88 63
4 11 5 181 88 63
5 11 5 136 65 46
-6 12 5 181 88 63
-5 12 5 136 65 46
-4 12 5 136 65 46
-3 12 5 136 65 46
-2 12 5 136 65 46
-1 12 5 181 88 63
0 12 5 181 88 63
1 12 5 181 88 63
2 12 5 181 88 63
3 12 5 136 65 46
4 12 5 136 65 46
5 12 5 181 88 63
-6 13 5 80 58 33
-5 13 5 80 58 33
-4 13 5 80 58 33
-3 13 5 80 58 33
-2 13 5 57 38 19
-1 13 5 80 58 33
0 13 5 80 58 33
1 13 5 57 38 19
2 13 5 80 58 33
3 13 5 80 58 33
4 13 5 80 58 33
5 13 5 80 58 33
-6 14 5 80 58 33
5 14 5 80 58 33
-6 15 5 80 58 33
5 15 5 80 58 33
-6 16 5 80 58 33
5 16 5 80 58 33
-6 17 5 80 58 33
5 17 5 80 58 33
-6 18 5 80 58 33
5 18 5 80 58 33
-6 19 5 80 58 33
5 19 5 80 58 33
-6 20 5 80 58 33
5 20 5 80 58 33
-6 21 5 80 58 33
-5 21 5 80 58 33
-4 21 5 80 58 33
-3 21 5 80 58 33
-2 21 5 80 58 33
-1 21 5 80 58 33
0 21 5 80 58 33
1 21 5 80 58 33
2 21 5 80 58 33
3 21 5 80 58 33
4 21 5 80 58 33
5 21 5 80 58 33
-4 12 6 136 65 46
3 12 6 136 65 46
-6 13 6 80 58 33
-5 13 6 198 147 70
-4 13 6 198 147 70
-3 13 6 198 147 70
-2 13 6 57 38 19
-1 13 6 198 147 70
0 13 6 198 147 70
1 13 6 57 38 19
2 13 6 198 147 70
3 13 6 198 147 70
4 13 6 198 147 70
5 13 6 80 58 33
-6 14 6 198 147 70
5 14 6 198 147 70
-7 15 6 136 65 46
-6 15 6 198 147 70
5 15 6 198 147 70
6 15 6 136 65 46
-6 16 6 198 147 70
5 16 6 198 147 70
-6 17 6 80 58 33
5 17 6 80 58 33
-6 18 6 198 147 70
5 18 6 198 147 70
-7 19 6 136 65 46
-6 19 6 198 147 70
5 19 6 198 147 70
6 19 6 136 65 46
-6 20 6 198 147 70
5 20 6 198 147 70
-6 21 6 80 58 33
-5 21 6 198 147 70
-4 21 6 198 147 70
-3 21 6 198 147 70
-2 21 6 80 58 33
-1 21 6 198 147 70
0 21 6 198 147 70
1 21 6 80 58 33
2 21 6 198 147 70
3 21 6 198 147 70
4 21 6 198 147 70
5 21 6 80 58 33
-4 22 6 136 65 46
3 22 6 136 65 46
-6 13 7 80 58 33
-5 13 7 198 147 70
-3 13 7 198 147 70
-2 13 7 80 58 33
-1 13 7 198 147 70
0 13 7 198 147 70
1 13 7 80 58 33
2 13 7 198 147 70
4 13 7 198 147 70
5 13 7 80 58 33
-6 14 7 198 147 70
-4 14 7 255 225 0
3 14 7 54 54 54
5 14 7 198 147 70
-5 15 7 255 225 0
4 15 7 54 54 54
-6 16 7 198 147 70
5 16 7 198 147 70
-6 17 7 80 58 33
5 17 7 80 58 33
-6 18 7 198 147 70
5 18 7 198 147 70
-5 19 7 54 54 54
4 19 7 255 225 0
-6 20 7 198 147 70
-4 20 7 54 54 54
3 20 7 255 225 0
5 20 7 198 147 70
-6 21 7 80 58 33
-5 21 7 198 147 70
-3 21 7 198 147 70
-2 21 7 80 58 33
-1 21 7 198 147 70
0 21 7 198 147 70
1 21 7 80 58 33
2 21 7 198 147 70
4 21 7 198 147 70
5 21 7 80 58 33
-6 13 8 80 58 33
-5 13 8 198 147 70
-3 13 8 198 147 70
-2 13 8 80 58 33
-1 13 8 198 147 70
0 13 8 198 147 70
1 13 8 80 58 33
2 13 8 198 147 70
4 13 8 198 147 70
5 13 8 80 58 33
-6 14 8 198 147 70
-4 14 8 255 225 0
3 14 8 54 54 54
5 14 8 198 147 70
-5 15 8 255 225 0
4 15 8 54 54 54
-6 16 8 198 147 70
5 16 8 198 147 70
-6 17 8 80 58 33
5 17 8 80 58 33
-6 18 8 198 147 70
5 18 8 198 147 70
-5 19 8 54 54 54
4 19 8 255 225 0
-6 20 8 198 147 70
-4 20 8 54 54 54
3 20 8 255 225 0
5 20 8 198 147 70
-6 21 8 80 58 33
-5 21 8 198 147 70
-3 21 8 198 147 70
-2 21 8 80 58 33
-1 21 8 198 147 70
0 21 8 198 147 70
1 21 8 80 58 33
2 21 8 198 147 70
4 21 8 198 147 70
5 21 8 80 58 33
-2 10 9 80 58 33
1 10 9 80 58 33
-2 11 9 80 58 33
1 11 9 80 58 33
-2 12 9 57 38 19
1 12 9 57 38 19
-6 13 9 80 58 33
-5 13 9 198 147 70
-4 13 9 198 147 70
-3 13 9 198 147 70
-2 13 9 80 58 33
-1 13 9 198 147 70
0 13 9 198 147 70
1 13 9 80 58 33
2 13 9 198 147 70
3 13 9 198 147 70
4 13 9 198 147 70
5 13 9 80 58 33
-6 14 9 198 147 70
5 14 9 198 147 70
-6 15 9 198 147 70
5 15 9 198 147 70
-6 16 9 198 147 70
5 16 9 198 147 70
-6 17 9 80 58 33
5 17 9 80 58 33
-6 18 9 198 147 70
5 18 9 198 147 70
-6 19 9 198 147 70
5 19 9 198 147 70
-6 20 9 198 147 70
5 20 9 198 147 70
-6 21 9 80 58 33
-5 21 9 198 147 70
-4 21 9 198 147 70
-3 21 9 198 147 70
-2 21 9 80 58 33
-1 21 9 198 147 70
0 21 9 198 147 70
1 21 9 80 58 33
2 21 9 198 147 70
3 21 9 198 147 70
4 21 9 198 147 70
5 21 9 80 58 33
-3 10 10 35 88 67
-2 10 10 41 116 71
-1 10 10 41 116 71
0 10 10 35 88 67
1 10 10 41 116 71
2 10 10 35 88 67
-3 11 10 41 116 71
-2 11 10 35 88 67
-1 11 10 41 116 71
0 11 10 41 116 71
1 11 10 35 88 67
2 11 10 35 88 67
-6 13 10 80 58 33
-5 13 10 80 58 33
-4 13 10 80 58 33
-3 13 10 80 58 33
-2 13 10 57 38 19
-1 13 10 80 58 33
0 13 10 80 58 33
1 13 10 57 38 19
2 13 10 80 58 33
3 13 10 80 58 33
4 13 10 80 58 33
5 13 10 80 58 33
-6 14 10 80 58 33
5 14 10 80 58 33
-6 15 10 80 58 33
5 15 10 80 58 33
-6 16 10 80 58 33
5 16 10 80 58 33
-6 17 10 80 58 33
5 17 10 80 58 33
-6 18 10 80 58 33
5 18 10 80 58 33
-6 19 10 80 58 33
5 19 10 80 58 33
-6 20 10 80 58 33
5 20 10 80 58 33
-6 21 10 80 58 33
-5 21 10 80 58 33
-4 21 10 80 58 33
-3 21 10 80 58 33
-2 21 10 80 58 33
-1 21 10 80 58 33
0 21 10 80 58 33
1 21 10 80 58 33
2 21 10 80 58 33
3 21 10 80 58 33
4 21 10 80 58 33
5 21 10 80 58 33
-3 12 11 41 116 71
-2 12 11 35 88 67
-1 12 11 41 116 71
0 12 11 35 88 67
1 12 11 41 116 71
2 12 11 35 88 67
-6 13 11 80 58 33
-5 13 11 198 147 70
-4 13 11 198 147 70
-3 13 11 198 147 70
-2 13 11 57 38 19
-1 13 11 198 147 70
0 13 11 198 147 70
1 13 11 57 38 19
2 13 11 198 147 70
3 13 11 198 147 70
4 13 11 198 147 70
5 13 11 80 58 33
-6 14 11 198 147 70
5 14 11 198 147 70
-7 15 11 136 65 46
-6 15 11 198 147 70
5 15 11 198 147 70
6 15 11 136 65 46
-6 16 11 198 147 70
5 16 11 198 147 70
-6 17 11 80 58 33
5 17 11 80 58 33
-6 18 11 198 147 70
5 18 11 198 147 70
-7 19 11 136 65 46
-6 19 11 198 147 70
5 19 11 198 147 70
6 19 11 136 65 46
-6 20 11 198 147 70
5 20 11 198 147 70
-6 21 11 80 58 33
-5 21 11 198 147 70
-4 21 11 198 147 70
-3 21 11 198 147 70
-2 21 11 80 58 33
-1 21 11 198 147 70
0 21 11 198 147 70
1 21 11 80 58 33
2 21 11 198 147 70
3 21 11 198 147 70
4 21 11 198 147 70
5 21 11 80 58 33
-7 12 12 136 65 46
-6 12 12 181 88 63
-5 12 12 136 65 46
-4 12 12 136 65 46
-3 12 12 136 65 46
-2 12 12 136 65 46
-1 12 12 136 65 46
0 12 12 136 65 46
1 12 12 181 88 63
2 12 12 136 65 46
3 12 12 136 65 46
4 12 12 181 88 63
5 12 12 136 65 46
6 12 12 136 65 46
-6 13 12 57 38 19
-5 13 12 57 38 19
-4 13 12 57 38 19
-3 13 12 57 38 19
-2 13 12 57 38 19
-1 13 12 57 38 19
0 13 12 57 38 19
1 13 12 57 38 19
2 13 12 57 38 19
3 13 12 57 38 19
4 13 12 57 38 19
5 13 12 57 38 19
-6 14 12 198 147 70
5 14 12 198 147 70
-5 15 12 255 225 0
4 15 12 255 225 0
-6 16 12 198 147 70
5 16 12 198 147 70
-6 17 12 80 58 33
5 17 12 80 58 33
-6 18 12 198 147 70
5 18 12 198 147 70
-5 19 12 54 54 54
4 19 12 54 54 54
-6 20 12 198 147 70
5 20 12 198 147 70
-6 21 12 57 38 19
-5 21 12 151 112 58
-4 21 12 151 112 58
-3 21 12 151 112 58
-2 21 12 57 38 19
-1 21 12 151 112 58
0 21 12 151 112 58
1 21 12 57 38 19
2 21 12 151 112 58
3 21 12 151 112 58
4 21 12 151 112 58
5 21 12 57 38 19
-7 22 12 136 65 46
-6 22 12 181 88 63
-5 22 12 136 65 46
-4 22 12 136 65 46
-3 22 12 136 65 46
-2 22 12 136 65 46
-1 22 12 181 88 63
0 22 12 136 65 46
1 22 12 136 65 46
2 22 12 136 65 46
3 22 12 181 88 63
4 22 12 136 65 46
5 22 12 136 65 46
6 22 12 136 65 46
-7 13 13 136 65 46
-6 13 13 136 65 46
-5 13 13 181 88 63
-4 13 13 136 65 46
-3 13 13 181 88 63
-2 13 13 80 58 33
-1 13 13 136 65 46
0 13 13 136 65 46
1 13 13 80 58 33
2 13 13 136 65 46
3 13 13 136 65 46
4 13 13 136 65 46
5 13 13 136 65 46
6 13 13 136 65 46
-6 14 13 151 112 58
5 14 13 151 112 58
-5 15 13 255 225 0
4 15 13 255 225 0
-6 16 13 198 147 70
5 16 13 198 147 70
-6 17 13 80 58 33
5 17 13 80 58 33
-6 18 13 198 147 70
5 18 13 198 147 70
-5 19 13 54 54 54
4 19 13 54 54 54
-6 20 13 151 112 58
5 20 13 151 112 58
-7 21 13 136 65 46
-6 21 13 136 65 46
-5 21 13 136 65 46
-4 21 13 181 88 63
-3 21 13 136 65 46
-2 21 13 136 65 46
-1 21 13 136 65 46
0 21 13 136 65 46
1 21 13 181 88 63
2 21 13 136 65 46
3 21 13 136 65 46
4 21 13 136 65 46
5 21 13 181 88 63
6 21 13 136 65 46
-3 12 14 136 65 46
2 12 14 136 65 46
-3 13 14 181 88 63
-2 13 14 57 38 19
1 13 14 57 38 19
2 13 14 181 88 63
-7 14 14 136 65 46
-6 14 14 181 88 63
-5 14 14 136 65 46
-4 14 14 181 88 63
-3 14 14 136 65 46
-2 14 14 181 88 63
-1 14 14 255 225 0
0 14 14 255 225 0
2 14 14 136 65 46
3 14 14 136 65 46
4 14 14 181 88 63
5 14 14 136 65 46
6 14 14 136 65 46
-6 15 14 151 112 58
5 15 14 151 112 58
-6 16 14 198 147 70
5 16 14 198 147 70
-6 17 14 80 58 33
5 17 14 80 58 33
-6 18 14 198 147 70
5 18 14 198 147 70
-6 19 14 151 112 58
5 19 14 151 112 58
-7 20 14 136 65 46
-6 20 14 136 65 46
-5 20 14 181 88 63
-4 20 14 136 65 46
-3 20 14 181 88 63
-2 20 14 181 88 63
-1 20 14 136 65 46
0 20 14 136 65 46
1 20 14 136 65 46
2 20 14 181 88 63
3 20 14 136 65 46
4 20 14 181 88 63
5 20 14 136 65 46
6 20 14 136 65 46
-2 12 15 136 65 46
1 12 15 136 65 46
-2 13 15 181 88 63
1 13 15 181 88 63
-2 14 15 136 65 46
-1 14 15 255 225 0
0 14 15 255 225 0
1 14 15 136 65 46
-7 15 15 136 65 46
-6 15 15 136 65 46
-5 15 15 181 88 63
-4 15 15 181 88 63
-3 15 15 136 65 46
-2 15 15 181 88 63
2 15 15 136 65 46
3 15 15 181 88 63
4 15 15 136 65 46
5 15 15 181 88 63
6 15 15 136 65 46
-6 16 15 57 38 19
5 16 15 57 38 19
-6 17 15 80 58 33
5 17 15 80 58 33
-6 18 15 57 38 19
5 18 15 57 38 19
-7 19 15 136 65 46
-6 19 15 136 65 46
-5 19 15 181 88 63
-4 19 15 181 88 63
-3 19 15 181 88 63
-2 19 15 136 65 46
-1 19 15 181 88 63
0 19 15 181 88 63
1 19 15 181 88 63
2 19 15 181 88 63
3 19 15 181 88 63
4 19 15 181 88 63
5 19 15 136 65 46
6 19 15 136 65 46
3 20 15 86 86 86
4 20 15 86 86 86
-2 12 16 181 88 63
1 12 16 181 88 63
-2 13 16 181 88 63
-1 13 16 198 147 70
0 13 16 198 147 70
1 13 16 136 65 46
-2 14 16 136 65 46
1 14 16 181 88 63
-2 15 16 136 65 46
1 15 16 181 88 63
2 15 16 136 65 46
-7 16 16 136 65 46
-6 16 16 136 65 46
-5 16 16 136 65 46
-4 16 16 136 65 46
-3 16 16 136 65 46
-2 16 16 136 65 46
2 16 16 136 65 46
3 16 16 136 65 46
4 16 16 136 65 46
5 16 16 136 65 46
6 16 16 181 88 63
-6 17 16 57 38 19
5 17 16 57 38 19
-7 18 16 136 65 46
-6 18 16 136 65 46
-5 18 16 136 65 46
-4 18 16 181 88 63
-3 18 16 136 65 46
-2 18 16 136 65 46
-1 18 16 136 65 46
0 18 16 136 65 46
1 18 16 136 65 46
2 18 16 136 65 46
3 18 16 57 38 19
4 18 16 57 38 19
5 18 16 136 65 46
6 18 16 136 65 46
3 19 16 86 86 86
4 19 16 86 86 86
3 20 16 86 86 86
4 20 16 114 114 114
-1 12 17 181 88 63
0 12 17 136 65 46
-1 13 17 136 65 46
0 13 17 181 88 63
-1 14 17 181 88 63
0 14 17 136 65 46
-1 15 17 181 88 63
0 15 17 181 88 63
-7 16 17 136 65 46
-6 16 17 181 88 63
-5 16 17 136 65 46
-4 16 17 181 88 63
-3 16 17 136 65 46
-2 16 17 181 88 63
-1 16 17 136 65 46
0 16 17 181 88 63
1 16 17 181 88 63
2 16 17 181 88 63
3 16 17 181 88 63
4 16 17 136 65 46
5 16 17 181 88 63
6 16 17 136 65 46
-6 17 17 57 38 19
5 17 17 57 38 19
-7 18 17 136 65 46
-6 18 17 181 88 63
-5 18 17 181 88 63
-4 18 17 136 65 46
-3 18 17 181 88 63
-2 18 17 136 65 46
-1 18 17 181 88 63
0 18 17 181 88 63
1 18 17 181 88 63
2 18 17 136 65 46
3 18 17 136 65 46
4 18 17 136 65 46
5 18 17 136 65 46
6 18 17 136 65 46
3 19 17 86 86 86
4 19 17 114 114 114
3 20 17 114 114 114
4 20 17 86 86 86
-7 17 18 136 65 46
-6 17 18 181 88 63
-5 17 18 181 88 63
-4 17 18 181 88 63
-3 17 18 181 88 63
-2 17 18 181 88 63
-1 17 18 136 65 46
0 17 18 181 88 63
1 17 18 181 88 63
2 17 18 136 65 46
3 17 18 136 65 46
4 17 18 181 88 63
5 17 18 181 88 63
6 17 18 181 88 63
3 19 18 114 114 114
4 19 18 86 86 86
3 20 18 114 114 114
4 20 18 114 114 114
3 18 19 86 86 86
4 18 19 114 114 114
2 19 19 86 86 86
5 19 19 114 114 114
2 20 19 114 114 114
5 20 19 114 114 114
3 21 19 114 114 114
4 21 19 86 86 86
