ply
format ascii 1.0
comment : MagicaVoxel @ Ephtracy
element vertex 1668
property float x
property float y
property float z
property uchar red
property uchar green
property uchar blue
end_header
-13 -7 0 198 147 70
-12 -7 0 198 147 70
-2 -7 0 151 112 58
-13 -6 0 198 147 70
-12 -6 0 198 147 70
-2 -6 0 151 112 58
0 -6 0 57 38 19
1 -6 0 57 38 19
-14 -5 0 151 112 58
-13 -5 0 80 58 33
-12 -5 0 198 147 70
-2 -5 0 198 147 70
-13 -4 0 198 147 70
-12 -4 0 198 147 70
-2 -4 0 198 147 70
-1 -4 0 198 147 70
0 -4 0 198 147 70
1 -4 0 80 58 33
-12 5 0 198 147 70
-2 5 0 198 147 70
-1 5 0 198 147 70
0 5 0 198 147 70
1 5 0 80 58 33
-14 6 0 151 112 58
-13 6 0 198 147 70
-12 6 0 198 147 70
-2 6 0 198 147 70
-12 7 0 198 147 70
-2 7 0 151 112 58
0 7 0 57 38 19
1 7 0 57 38 19
-12 8 0 198 147 70
-2 8 0 198 147 70
-13 -7 1 198 147 70
-12 -7 1 198 147 70
-2 -7 1 198 147 70
-13 -6 1 198 147 70
-12 -6 1 198 147 70
-2 -6 1 198 147 70
0 -6 1 57 38 19
1 -6 1 57 38 19
-14 -5 1 151 112 58
-13 -5 1 80 58 33
-12 -5 1 198 147 70
-2 -5 1 198 147 70
-13 -4 1 198 147 70
-12 -4 1 198 147 70
-2 -4 1 198 147 70
-13 -3 1 198 147 70
-12 -3 1 198 147 70
-2 -3 1 198 147 70
-1 -3 1 198 147 70
0 -3 1 198 147 70
1 -3 1 151 112 58
-13 4 1 198 147 70
-12 4 1 198 147 70
-2 4 1 198 147 70
-1 4 1 198 147 70
0 4 1 198 147 70
1 4 1 151 112 58
-12 5 1 198 147 70
-2 5 1 198 147 70
-14 6 1 151 112 58
-13 6 1 198 147 70
-12 6 1 198 147 70
-2 6 1 198 147 70
-12 7 1 198 147 70
-2 7 1 198 147 70
0 7 1 57 38 19
1 7 1 57 38 19
-12 8 1 198 147 70
-2 8 1 198 147 70
-13 -7 2 198 147 70
-12 -7 2 198 147 70
-2 -7 2 198 147 70
-13 -6 2 198 147 70
-12 -6 2 198 147 70
-2 -6 2 198 147 70
0 -6 2 57 38 19
1 -6 2 57 38 19
-14 -5 2 151 112 58
-13 -5 2 80 58 33
-12 -5 2 198 147 70
-2 -5 2 198 147 70
-13 -4 2 198 147 70
-12 -4 2 198 147 70
-2 -4 2 198 147 70
-13 -3 2 198 147 70
-12 -3 2 198 147 70
-2 -3 2 198 147 70
-1 -3 2 198 147 70
0 -3 2 198 147 70
1 -3 2 151 112 58
-13 4 2 198 147 70
-12 4 2 198 147 70
-2 4 2 198 147 70
-1 4 2 198 147 70
0 4 2 198 147 70
1 4 2 151 112 58
-12 5 2 198 147 70
-2 5 2 198 147 70
-14 6 2 151 112 58
-13 6 2 198 147 70
-12 6 2 198 147 70
-2 6 2 198 147 70
-12 7 2 198 147 70
-2 7 2 198 147 70
0 7 2 57 38 19
1 7 2 57 38 19
-12 8 2 198 147 70
-2 8 2 198 147 70
-13 -7 3 80 58 33
-12 -7 3 198 147 70
-2 -7 3 198 147 70
-13 -6 3 80 58 33
-12 -6 3 198 147 70
-2 -6 3 198 147 70
0 -6 3 57 38 19
1 -6 3 57 38 19
-14 -5 3 151 112 58
-13 -5 3 80 58 33
-12 -5 3 198 147 70
-2 -5 3 198 147 70
-13 -4 3 198 147 70
-12 -4 3 198 147 70
-2 -4 3 198 147 70
-13 -3 3 198 147 70
-12 -3 3 198 147 70
-2 -3 3 198 147 70
-1 -3 3 198 147 70
0 -3 3 198 147 70
1 -3 3 151 112 58
-13 4 3 198 147 70
-12 4 3 198 147 70
-2 4 3 198 147 70
-1 4 3 198 147 70
0 4 3 198 147 70
1 4 3 151 112 58
-12 5 3 198 147 70
-2 5 3 198 147 70
-14 6 3 151 112 58
-13 6 3 198 147 70
-12 6 3 198 147 70
-2 6 3 198 147 70
-12 7 3 198 147 70
-2 7 3 151 112 58
0 7 3 57 38 19
1 7 3 57 38 19
-12 8 3 198 147 70
-2 8 3 198 147 70
-13 -7 4 198 147 70
-12 -7 4 198 147 70
-2 -7 4 151 112 58
-13 -6 4 198 147 70
-12 -6 4 198 147 70
-2 -6 4 151 112 58
0 -6 4 80 58 33
1 -6 4 80 58 33
-14 -5 4 198 147 70
-13 -5 4 80 58 33
-12 -5 4 198 147 70
-2 -5 4 198 147 70
-13 -4 4 198 147 70
-12 -4 4 198 147 70
-2 -4 4 198 147 70
-13 -3 4 198 147 70
-12 -3 4 198 147 70
-2 -3 4 198 147 70
-1 -3 4 198 147 70
0 -3 4 198 147 70
1 -3 4 151 112 58
-13 4 4 198 147 70
-12 4 4 198 147 70
-2 4 4 198 147 70
-1 4 4 198 147 70
0 4 4 198 147 70
1 4 4 151 112 58
-12 5 4 198 147 70
-2 5 4 198 147 70
-14 6 4 151 112 58
-13 6 4 198 147 70
-12 6 4 198 147 70
-2 6 4 198 147 70
-12 7 4 198 147 70
-2 7 4 151 112 58
0 7 4 80 58 33
1 7 4 80 58 33
-12 8 4 198 147 70
-2 8 4 198 147 70
-13 -7 5 198 147 70
-12 -7 5 198 147 70
-2 -7 5 151 112 58
-13 -6 5 198 147 70
-12 -6 5 198 147 70
-2 -6 5 151 112 58
0 -6 5 80 58 33
1 -6 5 80 58 33
-14 -5 5 198 147 70
-13 -5 5 80 58 33
-12 -5 5 198 147 70
-2 -5 5 198 147 70
-13 -4 5 198 147 70
-12 -4 5 198 147 70
-2 -4 5 198 147 70
-13 -3 5 198 147 70
-12 -3 5 198 147 70
-2 -3 5 198 147 70
-1 -3 5 198 147 70
0 -3 5 198 147 70
1 -3 5 198 147 70
-13 4 5 198 147 70
-12 4 5 198 147 70
-2 4 5 198 147 70
-1 4 5 198 147 70
0 4 5 198 147 70
1 4 5 198 147 70
-12 5 5 198 147 70
-2 5 5 198 147 70
-14 6 5 151 112 58
-13 6 5 198 147 70
-12 6 5 198 147 70
-2 6 5 198 147 70
-12 7 5 198 147 70
-2 7 5 151 112 58
0 7 5 80 58 33
1 7 5 80 58 33
-12 8 5 198 147 70
-2 8 5 198 147 70
-13 -7 6 198 147 70
-12 -7 6 198 147 70
-2 -7 6 198 147 70
-13 -6 6 198 147 70
-12 -6 6 198 147 70
-2 -6 6 198 147 70
0 -6 6 80 58 33
1 -6 6 80 58 33
-14 -5 6 151 112 58
-13 -5 6 80 58 33
-12 -5 6 198 147 70
-2 -5 6 198 147 70
-13 -4 6 198 147 70
-12 -4 6 198 147 70
-2 -4 6 198 147 70
-13 -3 6 198 147 70
-12 -3 6 198 147 70
-2 -3 6 198 147 70
-1 -3 6 198 147 70
0 -3 6 198 147 70
1 -3 6 198 147 70
-13 4 6 198 147 70
-12 4 6 198 147 70
-2 4 6 198 147 70
-1 4 6 198 147 70
0 4 6 198 147 70
1 4 6 198 147 70
-12 5 6 198 147 70
-2 5 6 198 147 70
-14 6 6 151 112 58
-13 6 6 198 147 70
-12 6 6 198 147 70
-2 6 6 198 147 70
-12 7 6 198 147 70
-2 7 6 198 147 70
0 7 6 57 38 19
1 7 6 80 58 33
-12 8 6 198 147 70
-2 8 6 198 147 70
-13 -7 7 198 147 70
-12 -7 7 198 147 70
-2 -7 7 198 147 70
-13 -6 7 198 147 70
-12 -6 7 198 147 70
-2 -6 7 198 147 70
-1 -6 7 198 147 70
0 -6 7 57 38 19
1 -6 7 57 38 19
-14 -5 7 151 112 58
-13 -5 7 80 58 33
-12 -5 7 198 147 70
-2 -5 7 198 147 70
-1 -5 7 198 147 70
-13 -4 7 198 147 70
-12 -4 7 198 147 70
-2 -4 7 198 147 70
-1 -4 7 198 147 70
-13 -3 7 198 147 70
-12 -3 7 198 147 70
-2 -3 7 198 147 70
-1 -3 7 198 147 70
0 -3 7 198 147 70
1 -3 7 198 147 70
-13 4 7 198 147 70
-12 4 7 198 147 70
-2 4 7 198 147 70
-1 4 7 198 147 70
0 4 7 198 147 70
1 4 7 198 147 70
-12 5 7 198 147 70
-2 5 7 198 147 70
-1 5 7 198 147 70
-14 6 7 151 112 58
-13 6 7 198 147 70
-12 6 7 198 147 70
-2 6 7 198 147 70
-1 6 7 198 147 70
-12 7 7 198 147 70
-2 7 7 198 147 70
-1 7 7 198 147 70
0 7 7 80 58 33
1 7 7 57 38 19
-12 8 7 198 147 70
-2 8 7 198 147 70
-14 -7 8 151 112 58
-13 -7 8 57 38 19
-12 -7 8 80 58 33
-2 -7 8 57 38 19
-1 -7 8 57 38 19
-13 -6 8 57 38 19
-12 -6 8 80 58 33
-2 -6 8 57 38 19
-1 -6 8 198 147 70
0 -6 8 57 38 19
1 -6 8 57 38 19
-14 -5 8 151 112 58
-13 -5 8 80 58 33
-12 -5 8 80 58 33
-2 -5 8 198 147 70
-1 -5 8 198 147 70
0 -5 8 198 147 70
-13 -4 8 198 147 70
-12 -4 8 198 147 70
-2 -4 8 198 147 70
-1 -4 8 198 147 70
0 -4 8 198 147 70
-13 -3 8 198 147 70
-12 -3 8 198 147 70
-2 -3 8 198 147 70
-1 -3 8 198 147 70
0 -3 8 198 147 70
1 -3 8 198 147 70
-13 4 8 198 147 70
-12 4 8 198 147 70
-2 4 8 198 147 70
-1 4 8 198 147 70
0 4 8 198 147 70
1 4 8 198 147 70
-12 5 8 198 147 70
-2 5 8 198 147 70
-1 5 8 198 147 70
0 5 8 198 147 70
-14 6 8 151 112 58
-13 6 8 198 147 70
-12 6 8 80 58 33
-2 6 8 198 147 70
-1 6 8 198 147 70
0 6 8 198 147 70
-12 7 8 80 58 33
-2 7 8 57 38 19
-1 7 8 198 147 70
0 7 8 80 58 33
1 7 8 57 38 19
-12 8 8 80 58 33
-2 8 8 57 38 19
-12 -7 9 57 38 19
-3 -7 9 57 38 19
-12 -6 9 57 38 19
-3 -6 9 57 38 19
-2 -6 9 57 38 19
-1 -6 9 57 38 19
0 -6 9 57 38 19
1 -6 9 57 38 19
-14 -5 9 151 112 58
-12 -5 9 57 38 19
0 -5 9 198 147 70
-13 -4 9 198 147 70
-12 -4 9 80 58 33
0 -4 9 198 147 70
-13 -3 9 198 147 70
-12 -3 9 198 147 70
-11 -3 9 198 147 70
-10 -3 9 198 147 70
-9 -3 9 198 147 70
-8 -3 9 198 147 70
-7 -3 9 198 147 70
-6 -3 9 198 147 70
-5 -3 9 198 147 70
-4 -3 9 198 147 70
-3 -3 9 198 147 70
-2 -3 9 198 147 70
-1 -3 9 198 147 70
0 -3 9 198 147 70
1 -3 9 198 147 70
-13 4 9 198 147 70
-12 4 9 198 147 70
-11 4 9 198 147 70
-10 4 9 198 147 70
-9 4 9 198 147 70
-8 4 9 198 147 70
-7 4 9 198 147 70
-6 4 9 198 147 70
-5 4 9 198 147 70
-4 4 9 198 147 70
-3 4 9 198 147 70
-2 4 9 198 147 70
-1 4 9 198 147 70
0 4 9 198 147 70
1 4 9 198 147 70
-12 5 9 80 58 33
0 5 9 198 147 70
-14 6 9 198 147 70
-13 6 9 198 147 70
-12 6 9 57 38 19
0 6 9 198 147 70
-12 7 9 57 38 19
-3 7 9 57 38 19
-2 7 9 80 58 33
-1 7 9 57 38 19
0 7 9 57 38 19
1 7 9 57 38 19
-12 8 9 57 38 19
-3 8 9 57 38 19
-11 -7 10 57 38 19
-10 -7 10 80 58 33
-9 -7 10 80 58 33
-4 -7 10 57 38 19
-11 -6 10 57 38 19
-10 -6 10 80 58 33
-9 -6 10 80 58 33
-4 -6 10 57 38 19
-3 -6 10 57 38 19
-2 -6 10 57 38 19
-1 -6 10 57 38 19
0 -6 10 57 38 19
1 -6 10 57 38 19
-14 -5 10 198 147 70
-11 -5 10 57 38 19
-10 -5 10 80 58 33
-9 -5 10 80 58 33
-8 -5 10 80 58 33
-7 -5 10 80 58 33
-6 -5 10 80 58 33
-5 -5 10 80 58 33
-4 -5 10 80 58 33
-3 -5 10 80 58 33
-2 -5 10 57 38 19
-1 -5 10 57 38 19
0 -5 10 57 38 19
1 -5 10 57 38 19
-13 -4 10 198 147 70
-12 -4 10 80 58 33
-11 -4 10 80 58 33
-10 -4 10 80 58 33
-9 -4 10 80 58 33
-8 -4 10 80 58 33
-7 -4 10 80 58 33
-6 -4 10 80 58 33
-5 -4 10 80 58 33
-4 -4 10 80 58 33
-3 -4 10 80 58 33
-2 -4 10 80 58 33
-1 -4 10 57 38 19
0 -4 10 57 38 19
1 -4 10 57 38 19
-13 -3 10 198 147 70
-12 -3 10 198 147 70
-11 -3 10 198 147 70
-10 -3 10 198 147 70
-9 -3 10 198 147 70
-8 -3 10 198 147 70
-7 -3 10 198 147 70
-6 -3 10 198 147 70
-5 -3 10 198 147 70
-4 -3 10 198 147 70
-3 -3 10 198 147 70
-2 -3 10 198 147 70
-1 -3 10 198 147 70
0 -3 10 198 147 70
1 -3 10 198 147 70
-13 4 10 198 147 70
-12 4 10 198 147 70
-11 4 10 198 147 70
-10 4 10 198 147 70
-9 4 10 198 147 70
-8 4 10 198 147 70
-7 4 10 198 147 70
-6 4 10 198 147 70
-5 4 10 198 147 70
-4 4 10 198 147 70
-3 4 10 198 147 70
-2 4 10 198 147 70
-1 4 10 198 147 70
0 4 10 198 147 70
1 4 10 198 147 70
-12 5 10 57 38 19
-11 5 10 80 58 33
-10 5 10 80 58 33
-9 5 10 80 58 33
-8 5 10 80 58 33
-7 5 10 80 58 33
-6 5 10 80 58 33
-5 5 10 80 58 33
-4 5 10 80 58 33
-3 5 10 80 58 33
-2 5 10 57 38 19
-1 5 10 57 38 19
0 5 10 57 38 19
1 5 10 57 38 19
-14 6 10 198 147 70
-13 6 10 198 147 70
-12 6 10 198 147 70
-11 6 10 80 58 33
-10 6 10 80 58 33
-9 6 10 80 58 33
-8 6 10 80 58 33
-7 6 10 80 58 33
-6 6 10 80 58 33
-5 6 10 80 58 33
-4 6 10 80 58 33
-3 6 10 80 58 33
-2 6 10 57 38 19
-1 6 10 57 38 19
0 6 10 57 38 19
1 6 10 57 38 19
-11 7 10 57 38 19
-10 7 10 80 58 33
-9 7 10 80 58 33
-4 7 10 57 38 19
-3 7 10 57 38 19
-2 7 10 57 38 19
-1 7 10 57 38 19
0 7 10 57 38 19
1 7 10 57 38 19
-11 8 10 57 38 19
-10 8 10 80 58 33
-9 8 10 80 58 33
-4 8 10 57 38 19
-11 -7 11 57 38 19
-10 -7 11 80 58 33
-9 -7 11 80 58 33
-8 -7 11 80 58 33
-5 -7 11 80 58 33
-4 -7 11 57 38 19
-11 -6 11 57 38 19
-10 -6 11 80 58 33
-9 -6 11 80 58 33
-8 -6 11 80 58 33
-7 -6 11 80 58 33
-6 -6 11 80 58 33
-5 -6 11 80 58 33
-4 -6 11 57 38 19
-14 -5 11 198 147 70
-11 -5 11 57 38 19
-10 -5 11 80 58 33
-9 -5 11 80 58 33
-8 -5 11 80 58 33
-7 -5 11 80 58 33
-6 -5 11 80 58 33
-5 -5 11 80 58 33
-4 -5 11 80 58 33
-14 -4 11 198 147 70
-11 -4 11 80 58 33
-10 -4 11 80 58 33
-9 -4 11 80 58 33
-8 -4 11 80 58 33
-7 -4 11 80 58 33
-6 -4 11 80 58 33
-5 -4 11 80 58 33
-4 -4 11 80 58 33
-14 -3 11 198 147 70
-11 -3 11 80 58 33
-10 -3 11 198 147 70
-9 -3 11 198 147 70
-8 -3 11 198 147 70
-7 -3 11 198 147 70
-6 -3 11 198 147 70
-5 -3 11 198 147 70
-4 -3 11 198 147 70
-3 -3 11 57 38 19
-2 -3 11 57 38 19
-1 -3 11 80 58 33
0 -3 11 57 38 19
1 -3 11 57 38 19
-13 -2 11 198 147 70
-12 -2 11 198 147 70
-11 -2 11 198 147 70
-10 -2 11 198 147 70
-9 -2 11 198 147 70
-8 -2 11 198 147 70
-7 -2 11 198 147 70
-6 -2 11 198 147 70
-5 -2 11 198 147 70
-4 -2 11 198 147 70
-3 -2 11 198 147 70
-2 -2 11 198 147 70
-1 -2 11 198 147 70
0 -2 11 198 147 70
-13 3 11 198 147 70
-12 3 11 198 147 70
-11 3 11 198 147 70
-10 3 11 198 147 70
-9 3 11 198 147 70
-8 3 11 198 147 70
-7 3 11 198 147 70
-6 3 11 198 147 70
-5 3 11 198 147 70
-4 3 11 198 147 70
-3 3 11 198 147 70
-2 3 11 198 147 70
-1 3 11 198 147 70
0 3 11 198 147 70
-14 4 11 198 147 70
-13 4 11 198 147 70
-12 4 11 198 147 70
-11 4 11 57 38 19
-10 4 11 198 147 70
-9 4 11 198 147 70
-8 4 11 198 147 70
-7 4 11 198 147 70
-6 4 11 198 147 70
-5 4 11 198 147 70
-4 4 11 198 147 70
-3 4 11 57 38 19
-2 4 11 57 38 19
-1 4 11 80 58 33
0 4 11 80 58 33
1 4 11 57 38 19
-14 5 11 198 147 70
-13 5 11 198 147 70
-12 5 11 198 147 70
-11 5 11 57 38 19
-10 5 11 80 58 33
-9 5 11 80 58 33
-8 5 11 80 58 33
-7 5 11 80 58 33
-6 5 11 80 58 33
-5 5 11 80 58 33
-4 5 11 80 58 33
-14 6 11 198 147 70
-13 6 11 198 147 70
-12 6 11 198 147 70
-11 6 11 57 38 19
-10 6 11 80 58 33
-9 6 11 80 58 33
-8 6 11 80 58 33
-7 6 11 80 58 33
-6 6 11 80 58 33
-5 6 11 80 58 33
-4 6 11 57 38 19
-11 7 11 57 38 19
-10 7 11 80 58 33
-9 7 11 80 58 33
-8 7 11 80 58 33
-7 7 11 80 58 33
-6 7 11 80 58 33
-5 7 11 80 58 33
-4 7 11 57 38 19
-11 8 11 57 38 19
-10 8 11 80 58 33
-9 8 11 80 58 33
-8 8 11 80 58 33
-5 8 11 80 58 33
-4 8 11 57 38 19
-10 -7 12 57 38 19
-9 -7 12 80 58 33
-8 -7 12 80 58 33
-7 -7 12 80 58 33
-6 -7 12 80 58 33
-5 -7 12 57 38 19
-10 -6 12 57 38 19
-9 -6 12 80 58 33
-8 -6 12 80 58 33
-7 -6 12 80 58 33
-6 -6 12 80 58 33
-5 -6 12 57 38 19
-10 -5 12 80 58 33
-9 -5 12 80 58 33
-8 -5 12 80 58 33
-7 -5 12 80 58 33
-6 -5 12 80 58 33
-5 -5 12 57 38 19
-10 -4 12 80 58 33
-9 -4 12 80 58 33
-8 -4 12 80 58 33
-7 -4 12 80 58 33
-6 -4 12 80 58 33
-5 -4 12 80 58 33
-10 -3 12 198 147 70
-9 -3 12 198 147 70
-8 -3 12 198 147 70
-7 -3 12 198 147 70
-6 -3 12 198 147 70
-5 -3 12 80 58 33
-4 -3 12 57 38 19
-3 -3 12 80 58 33
-2 -3 12 57 38 19
-1 -3 12 57 38 19
0 -3 12 57 38 19
1 -3 12 57 38 19
-14 -2 12 198 147 70
-13 -2 12 198 147 70
-12 -2 12 198 147 70
-11 -2 12 198 147 70
-10 -2 12 198 147 70
-9 -2 12 198 147 70
-8 -2 12 198 147 70
-7 -2 12 198 147 70
-6 -2 12 198 147 70
-5 -2 12 198 147 70
-4 -2 12 80 58 33
-3 -2 12 80 58 33
-2 -2 12 80 58 33
-1 -2 12 80 58 33
0 -2 12 80 58 33
-14 3 12 198 147 70
-13 3 12 198 147 70
-12 3 12 198 147 70
-11 3 12 198 147 70
-10 3 12 198 147 70
-9 3 12 198 147 70
-8 3 12 198 147 70
-7 3 12 198 147 70
-6 3 12 198 147 70
-5 3 12 198 147 70
-4 3 12 80 58 33
-3 3 12 80 58 33
-2 3 12 80 58 33
-1 3 12 80 58 33
0 3 12 80 58 33
-10 4 12 57 38 19
-9 4 12 198 147 70
-8 4 12 198 147 70
-7 4 12 198 147 70
-6 4 12 198 147 70
-5 4 12 80 58 33
-4 4 12 57 38 19
-3 4 12 80 58 33
-2 4 12 57 38 19
-1 4 12 57 38 19
0 4 12 57 38 19
1 4 12 57 38 19
-10 5 12 57 38 19
-9 5 12 80 58 33
-8 5 12 80 58 33
-7 5 12 80 58 33
-6 5 12 80 58 33
-5 5 12 80 58 33
-10 6 12 80 58 33
-9 6 12 80 58 33
-8 6 12 80 58 33
-7 6 12 80 58 33
-6 6 12 80 58 33
-5 6 12 57 38 19
-10 7 12 57 38 19
-9 7 12 80 58 33
-8 7 12 80 58 33
-7 7 12 80 58 33
-6 7 12 80 58 33
-5 7 12 57 38 19
-10 8 12 57 38 19
-9 8 12 80 58 33
-8 8 12 80 58 33
-7 8 12 80 58 33
-6 8 12 80 58 33
-5 8 12 57 38 19
-10 -7 13 57 38 19
-9 -7 13 80 58 33
-8 -7 13 80 58 33
-7 -7 13 80 58 33
-6 -7 13 80 58 33
-5 -7 13 57 38 19
-10 -6 13 57 38 19
-9 -6 13 80 58 33
-8 -6 13 80 58 33
-7 -6 13 80 58 33
-6 -6 13 80 58 33
-5 -6 13 57 38 19
-10 -5 13 57 38 19
-9 -5 13 80 58 33
-8 -5 13 80 58 33
-7 -5 13 80 58 33
-6 -5 13 80 58 33
-5 -5 13 80 58 33
-10 -4 13 151 112 58
-9 -4 13 80 58 33
-8 -4 13 80 58 33
-7 -4 13 80 58 33
-6 -4 13 80 58 33
-5 -4 13 57 38 19
-14 -3 13 57 38 19
-13 -3 13 57 38 19
-12 -3 13 80 58 33
-10 -3 13 151 112 58
-9 -3 13 198 147 70
-8 -3 13 198 147 70
-7 -3 13 198 147 70
-6 -3 13 198 147 70
-13 -2 13 57 38 19
-12 -2 13 80 58 33
-11 -2 13 80 58 33
-10 -2 13 198 147 70
-9 -2 13 198 147 70
-8 -2 13 198 147 70
-7 -2 13 198 147 70
-6 -2 13 198 147 70
-5 -2 13 80 58 33
-4 -2 13 80 58 33
-3 -2 13 57 38 19
-2 -2 13 80 58 33
-1 -2 13 80 58 33
0 -2 13 80 58 33
1 -2 13 57 38 19
-13 -1 13 198 147 70
-12 -1 13 198 147 70
-11 -1 13 198 147 70
-10 -1 13 198 147 70
-9 -1 13 198 147 70
-8 -1 13 198 147 70
-7 -1 13 198 147 70
-6 -1 13 198 147 70
-5 -1 13 198 147 70
-4 -1 13 198 147 70
-3 -1 13 80 58 33
-2 -1 13 80 58 33
-1 -1 13 80 58 33
0 -1 13 80 58 33
-13 2 13 198 147 70
-12 2 13 198 147 70
-11 2 13 198 147 70
-10 2 13 198 147 70
-9 2 13 198 147 70
-8 2 13 198 147 70
-7 2 13 198 147 70
-6 2 13 198 147 70
-5 2 13 198 147 70
-4 2 13 198 147 70
-3 2 13 80 58 33
-2 2 13 80 58 33
-1 2 13 80 58 33
0 2 13 80 58 33
-13 3 13 198 147 70
-12 3 13 80 58 33
-11 3 13 80 58 33
-10 3 13 198 147 70
-9 3 13 198 147 70
-8 3 13 198 147 70
-7 3 13 198 147 70
-6 3 13 198 147 70
-5 3 13 80 58 33
-4 3 13 80 58 33
-3 3 13 57 38 19
-2 3 13 80 58 33
-1 3 13 80 58 33
0 3 13 80 58 33
1 3 13 57 38 19
-14 4 13 57 38 19
-13 4 13 80 58 33
-12 4 13 57 38 19
-10 4 13 198 147 70
-9 4 13 198 147 70
-8 4 13 198 147 70
-7 4 13 198 147 70
-6 4 13 198 147 70
-10 5 13 57 38 19
-9 5 13 80 58 33
-8 5 13 80 58 33
-7 5 13 80 58 33
-6 5 13 80 58 33
-5 5 13 57 38 19
-10 6 13 57 38 19
-9 6 13 80 58 33
-8 6 13 80 58 33
-7 6 13 80 58 33
-6 6 13 80 58 33
-5 6 13 80 58 33
-10 7 13 57 38 19
-9 7 13 80 58 33
-8 7 13 80 58 33
-7 7 13 80 58 33
-6 7 13 80 58 33
-5 7 13 57 38 19
-10 8 13 57 38 19
-9 8 13 80 58 33
-8 8 13 80 58 33
-7 8 13 80 58 33
-6 8 13 80 58 33
-5 8 13 57 38 19
-9 -7 14 80 58 33
-8 -7 14 80 58 33
-7 -7 14 80 58 33
-6 -7 14 57 38 19
-9 -6 14 80 58 33
-8 -6 14 80 58 33
-7 -6 14 80 58 33
-6 -6 14 57 38 19
-9 -5 14 80 58 33
-8 -5 14 80 58 33
-7 -5 14 80 58 33
-6 -5 14 80 58 33
-9 -4 14 80 58 33
-8 -4 14 80 58 33
-7 -4 14 80 58 33
-6 -4 14 80 58 33
-10 -3 14 151 112 58
-9 -3 14 198 147 70
-8 -3 14 198 147 70
-7 -3 14 198 147 70
-6 -3 14 198 147 70
-14 -2 14 80 58 33
-13 -2 14 57 38 19
-12 -2 14 80 58 33
-11 -2 14 80 58 33
-8 -2 14 198 147 70
-7 -2 14 198 147 70
-6 -2 14 198 147 70
-5 -2 14 80 58 33
-4 -2 14 80 58 33
-3 -2 14 80 58 33
-2 -2 14 57 38 19
-1 -2 14 57 38 19
0 -2 14 57 38 19
1 -2 14 57 38 19
-13 -1 14 80 58 33
-12 -1 14 80 58 33
-8 -1 14 198 147 70
-7 -1 14 198 147 70
-6 -1 14 198 147 70
-5 -1 14 198 147 70
-4 -1 14 198 147 70
-3 -1 14 80 58 33
-2 -1 14 80 58 33
-1 -1 14 80 58 33
0 -1 14 80 58 33
-13 0 14 198 147 70
-3 0 14 80 58 33
-2 0 14 80 58 33
-1 0 14 80 58 33
0 0 14 80 58 33
-13 1 14 198 147 70
-3 1 14 80 58 33
-2 1 14 80 58 33
-1 1 14 80 58 33
0 1 14 80 58 33
-13 2 14 80 58 33
-12 2 14 80 58 33
-8 2 14 198 147 70
-7 2 14 198 147 70
-6 2 14 198 147 70
-5 2 14 198 147 70
-4 2 14 198 147 70
-3 2 14 80 58 33
-2 2 14 80 58 33
-1 2 14 80 58 33
0 2 14 80 58 33
-14 3 14 57 38 19
-13 3 14 57 38 19
-12 3 14 80 58 33
-11 3 14 80 58 33
-8 3 14 198 147 70
-7 3 14 198 147 70
-6 3 14 198 147 70
-5 3 14 80 58 33
-4 3 14 80 58 33
-3 3 14 80 58 33
-2 3 14 57 38 19
-1 3 14 57 38 19
0 3 14 57 38 19
1 3 14 57 38 19
-10 4 14 198 147 70
-9 4 14 198 147 70
-8 4 14 198 147 70
-7 4 14 198 147 70
-6 4 14 151 112 58
-9 5 14 80 58 33
-8 5 14 80 58 33
-7 5 14 80 58 33
-6 5 14 151 112 58
-9 6 14 57 38 19
-8 6 14 80 58 33
-7 6 14 80 58 33
-6 6 14 80 58 33
-9 7 14 57 38 19
-8 7 14 80 58 33
-7 7 14 80 58 33
-6 7 14 57 38 19
-9 8 14 57 38 19
-8 8 14 80 58 33
-7 8 14 80 58 33
-6 8 14 80 58 33
-9 -7 15 57 38 19
-8 -7 15 80 58 33
-7 -7 15 80 58 33
-6 -7 15 57 38 19
-9 -6 15 57 38 19
-8 -6 15 80 58 33
-7 -6 15 80 58 33
-6 -6 15 57 38 19
-9 -5 15 80 58 33
-8 -5 15 80 58 33
-7 -5 15 80 58 33
-6 -5 15 80 58 33
-9 -4 15 80 58 33
-8 -4 15 80 58 33
-7 -4 15 80 58 33
-6 -4 15 80 58 33
-10 -3 15 198 147 70
-9 -3 15 198 147 70
-8 -3 15 198 147 70
-7 -3 15 198 147 70
-6 -3 15 198 147 70
-11 -2 15 80 58 33
-8 -2 15 198 147 70
-7 -2 15 198 147 70
-6 -2 15 198 147 70
-5 -2 15 80 58 33
-14 -1 15 57 38 19
-13 -1 15 80 58 33
-12 -1 15 80 58 33
-8 -1 15 198 147 70
-7 -1 15 198 147 70
-6 -1 15 198 147 70
-5 -1 15 198 147 70
-4 -1 15 198 147 70
-3 -1 15 80 58 33
-2 -1 15 80 58 33
-1 -1 15 57 38 19
0 -1 15 57 38 19
1 -1 15 57 38 19
-13 0 15 198 147 70
-3 0 15 80 58 33
-2 0 15 80 58 33
-1 0 15 80 58 33
0 0 15 80 58 33
-13 1 15 198 147 70
-3 1 15 80 58 33
-2 1 15 80 58 33
-1 1 15 80 58 33
0 1 15 80 58 33
-14 2 15 80 58 33
-13 2 15 57 38 19
-12 2 15 80 58 33
-8 2 15 198 147 70
-7 2 15 198 147 70
-6 2 15 198 147 70
-5 2 15 198 147 70
-4 2 15 198 147 70
-3 2 15 80 58 33
-2 2 15 80 58 33
-1 2 15 57 38 19
0 2 15 57 38 19
1 2 15 57 38 19
-11 3 15 80 58 33
-8 3 15 198 147 70
-7 3 15 198 147 70
-6 3 15 198 147 70
-5 3 15 80 58 33
-10 4 15 198 147 70
-9 4 15 198 147 70
-8 4 15 198 147 70
-7 4 15 198 147 70
-6 4 15 151 112 58
-9 5 15 57 38 19
-8 5 15 80 58 33
-7 5 15 80 58 33
-6 5 15 151 112 58
-9 6 15 80 58 33
-8 6 15 80 58 33
-7 6 15 80 58 33
-6 6 15 80 58 33
-9 7 15 57 38 19
-8 7 15 80 58 33
-7 7 15 80 58 33
-6 7 15 80 58 33
-9 8 15 57 38 19
-8 8 15 80 58 33
-7 8 15 80 58 33
-6 8 15 57 38 19
-8 -7 16 80 58 33
-7 -7 16 57 38 19
-8 -6 16 80 58 33
-7 -6 16 57 38 19
-8 -5 16 80 58 33
-7 -5 16 80 58 33
-8 -4 16 80 58 33
-7 -4 16 80 58 33
-10 -3 16 151 112 58
-9 -3 16 151 112 58
-8 -3 16 198 147 70
-7 -3 16 198 147 70
-6 -3 16 198 147 70
-11 -2 16 80 58 33
-8 -2 16 198 147 70
-7 -2 16 198 147 70
-6 -2 16 198 147 70
-5 -2 16 80 58 33
-14 -1 16 57 38 19
-13 -1 16 57 38 19
-12 -1 16 198 147 70
-8 -1 16 198 147 70
-7 -1 16 198 147 70
-6 -1 16 198 147 70
-5 -1 16 198 147 70
-4 -1 16 198 147 70
-13 0 16 198 147 70
-3 0 16 80 58 33
-2 0 16 57 38 19
-1 0 16 80 58 33
0 0 16 80 58 33
1 0 16 80 58 33
-13 1 16 198 147 70
-3 1 16 80 58 33
-2 1 16 80 58 33
-1 1 16 80 58 33
0 1 16 80 58 33
1 1 16 80 58 33
-14 2 16 80 58 33
-13 2 16 57 38 19
-12 2 16 57 38 19
-8 2 16 198 147 70
-7 2 16 198 147 70
-6 2 16 198 147 70
-5 2 16 198 147 70
-4 2 16 151 112 58
-11 3 16 80 58 33
-8 3 16 198 147 70
-7 3 16 198 147 70
-6 3 16 198 147 70
-5 3 16 80 58 33
-10 4 16 198 147 70
-9 4 16 151 112 58
-8 4 16 198 147 70
-7 4 16 198 147 70
-6 4 16 151 112 58
-8 5 16 80 58 33
-7 5 16 80 58 33
-8 6 16 57 38 19
-7 6 16 80 58 33
-8 7 16 57 38 19
-7 7 16 57 38 19
-8 8 16 57 38 19
-7 8 16 57 38 19
-8 -7 17 57 38 19
-7 -7 17 57 38 19
-8 -6 17 57 38 19
-7 -6 17 57 38 19
-8 -5 17 80 58 33
-7 -5 17 57 38 19
-8 -4 17 80 58 33
-7 -4 17 80 58 33
-10 -3 17 151 112 58
-9 -3 17 198 147 70
-8 -3 17 198 147 70
-7 -3 17 198 147 70
-6 -3 17 198 147 70
-11 -2 17 80 58 33
-5 -2 17 80 58 33
-14 -1 17 57 38 19
-13 -1 17 57 38 19
-12 -1 17 198 147 70
-4 -1 17 151 112 58
-13 0 17 198 147 70
-3 0 17 80 58 33
-2 0 17 80 58 33
-1 0 17 57 38 19
0 0 17 80 58 33
1 0 17 80 58 33
-13 1 17 198 147 70
-3 1 17 57 38 19
-2 1 17 80 58 33
-1 1 17 80 58 33
0 1 17 80 58 33
1 1 17 80 58 33
-14 2 17 57 38 19
-13 2 17 80 58 33
-12 2 17 80 58 33
-4 2 17 151 112 58
-11 3 17 80 58 33
-5 3 17 80 58 33
-10 4 17 151 112 58
-9 4 17 151 112 58
-8 4 17 198 147 70
-7 4 17 198 147 70
-6 4 17 151 112 58
-8 5 17 80 58 33
-7 5 17 80 58 33
-8 6 17 57 38 19
-7 6 17 80 58 33
-8 7 17 80 58 33
-7 7 17 57 38 19
-8 8 17 80 58 33
-7 8 17 80 58 33
-10 -3 18 198 147 70
-9 -3 18 198 147 70
-8 -3 18 198 147 70
-7 -3 18 151 112 58
-6 -3 18 151 112 58
-11 -2 18 80 58 33
-5 -2 18 80 58 33
-12 -1 18 198 147 70
-4 -1 18 198 147 70
-14 0 18 80 58 33
-13 0 18 80 58 33
-4 0 18 151 112 58
-14 1 18 57 38 19
-13 1 18 80 58 33
-4 1 18 151 112 58
-12 2 18 198 147 70
-4 2 18 151 112 58
-11 3 18 80 58 33
-5 3 18 80 58 33
-10 4 18 151 112 58
-9 4 18 198 147 70
-8 4 18 151 112 58
-7 4 18 151 112 58
-6 4 18 151 112 58
-10 -3 19 198 147 70
-9 -3 19 151 112 58
-8 -3 19 198 147 70
-7 -3 19 198 147 70
-6 -3 19 198 147 70
-11 -2 19 80 58 33
-5 -2 19 80 58 33
-12 -1 19 198 147 70
-4 -1 19 198 147 70
-12 0 19 198 147 70
-4 0 19 151 112 58
-12 1 19 198 147 70
-4 1 19 151 112 58
-12 2 19 198 147 70
-4 2 19 198 147 70
-11 3 19 80 58 33
-5 3 19 80 58 33
-10 4 19 198 147 70
-9 4 19 198 147 70
-8 4 19 151 112 58
-7 4 19 198 147 70
-6 4 19 198 147 70
-10 -3 20 80 58 33
-9 -3 20 80 58 33
-7 -3 20 80 58 33
-6 -3 20 80 58 33
-11 -2 20 80 58 33
-5 -2 20 80 58 33
-12 -1 20 80 58 33
-4 -1 20 80 58 33
-12 0 20 80 58 33
-4 0 20 80 58 33
-12 1 20 80 58 33
-4 1 20 80 58 33
-12 2 20 80 58 33
-4 2 20 80 58 33
-11 3 20 80 58 33
-5 3 20 80 58 33
-10 4 20 80 58 33
-9 4 20 80 58 33
-7 4 20 80 58 33
-6 4 20 80 58 33
-10 -3 21 151 112 58
-9 -3 21 198 147 70
-7 -3 21 151 112 58
-6 -3 21 151 112 58
-11 -2 21 80 58 33
-5 -2 21 80 58 33
-12 -1 21 198 147 70
-4 -1 21 198 147 70
-12 0 21 198 147 70
-4 0 21 198 147 70
-12 1 21 198 147 70
-4 1 21 198 147 70
-12 2 21 198 147 70
-4 2 21 198 147 70
-11 3 21 80 58 33
-5 3 21 80 58 33
-10 4 21 198 147 70
-9 4 21 198 147 70
-7 4 21 198 147 70
-6 4 21 198 147 70
-10 -3 22 198 147 70
-9 -3 22 198 147 70
-7 -3 22 198 147 70
-6 -3 22 198 147 70
-11 -2 22 80 58 33
-5 -2 22 80 58 33
-12 -1 22 198 147 70
-4 -1 22 198 147 70
-12 0 22 198 147 70
-4 0 22 151 112 58
-12 1 22 198 147 70
-4 1 22 198 147 70
-12 2 22 198 147 70
-4 2 22 198 147 70
-11 3 22 80 58 33
-5 3 22 80 58 33
-10 4 22 151 112 58
-9 4 22 198 147 70
-7 4 22 198 147 70
-6 4 22 198 147 70
-10 -3 23 57 38 19
-9 -3 23 57 38 19
-8 -3 23 57 38 19
-7 -3 23 57 38 19
-6 -3 23 57 38 19
-11 -2 23 57 38 19
-10 -2 23 57 38 19
-9 -2 23 57 38 19
-8 -2 23 57 38 19
-7 -2 23 57 38 19
-6 -2 23 57 38 19
-5 -2 23 57 38 19
-12 -1 23 57 38 19
-11 -1 23 57 38 19
-10 -1 23 57 38 19
-6 -1 23 57 38 19
-5 -1 23 57 38 19
-4 -1 23 80 58 33
-12 0 23 57 38 19
-11 0 23 57 38 19
-10 0 23 57 38 19
-6 0 23 57 38 19
-5 0 23 57 38 19
-4 0 23 57 38 19
-12 1 23 57 38 19
-11 1 23 57 38 19
-10 1 23 57 38 19
-6 1 23 57 38 19
-5 1 23 57 38 19
-4 1 23 57 38 19
-12 2 23 57 38 19
-11 2 23 57 38 19
-10 2 23 57 38 19
-6 2 23 57 38 19
-5 2 23 57 38 19
-4 2 23 80 58 33
-11 3 23 57 38 19
-10 3 23 57 38 19
-9 3 23 57 38 19
-8 3 23 57 38 19
-7 3 23 57 38 19
-6 3 23 57 38 19
-5 3 23 57 38 19
-10 4 23 57 38 19
-9 4 23 57 38 19
-8 4 23 57 38 19
-7 4 23 57 38 19
-6 4 23 57 38 19
-8 -2 24 198 147 70
-9 -1 24 198 147 70
-8 -1 24 198 147 70
-7 -1 24 151 112 58
-10 0 24 151 112 58
-9 0 24 198 147 70
-8 0 24 198 147 70
-7 0 24 198 147 70
-6 0 24 151 112 58
-10 1 24 151 112 58
-9 1 24 198 147 70
-8 1 24 198 147 70
-7 1 24 198 147 70
-6 1 24 198 147 70
-9 2 24 151 112 58
-8 2 24 198 147 70
-7 2 24 151 112 58
-8 3 24 151 112 58
-8 -2 25 198 147 70
-9 -1 25 151 112 58
-8 -1 25 198 147 70
-7 -1 25 198 147 70
-10 0 25 198 147 70
-9 0 25 198 147 70
-8 0 25 198 147 70
-7 0 25 198 147 70
-6 0 25 198 147 70
-10 1 25 198 147 70
-9 1 25 198 147 70
-8 1 25 198 147 70
-7 1 25 198 147 70
-6 1 25 198 147 70
-9 2 25 151 112 58
-8 2 25 198 147 70
-7 2 25 198 147 70
-8 3 25 151 112 58
-8 -2 26 151 112 58
-9 -1 26 198 147 70
-8 -1 26 198 147 70
-7 -1 26 198 147 70
-10 0 26 198 147 70
-9 0 26 198 147 70
-8 0 26 198 147 70
-7 0 26 198 147 70
-6 0 26 198 147 70
-10 1 26 198 147 70
-9 1 26 198 147 70
-8 1 26 198 147 70
-7 1 26 198 147 70
-6 1 26 198 147 70
-9 2 26 198 147 70
-8 2 26 198 147 70
-7 2 26 198 147 70
-8 3 26 198 147 70
-8 -2 27 198 147 70
-9 -1 27 198 147 70
-8 -1 27 198 147 70
-7 -1 27 151 112 58
-10 0 27 198 147 70
-9 0 27 198 147 70
-8 0 27 198 147 70
-7 0 27 198 147 70
-6 0 27 198 147 70
-10 1 27 198 147 70
-9 1 27 198 147 70
-8 1 27 198 147 70
-7 1 27 198 147 70
-6 1 27 198 147 70
-9 2 27 198 147 70
-8 2 27 198 147 70
-7 2 27 151 112 58
-8 3 27 198 147 70
-8 -2 28 198 147 70
-9 -1 28 151 112 58
-8 -1 28 198 147 70
-7 -1 28 198 147 70
-10 0 28 198 147 70
-9 0 28 198 147 70
-8 0 28 198 147 70
-7 0 28 198 147 70
-6 0 28 198 147 70
-10 1 28 198 147 70
-9 1 28 198 147 70
-8 1 28 198 147 70
-7 1 28 198 147 70
-6 1 28 198 147 70
-9 2 28 151 112 58
-8 2 28 198 147 70
-7 2 28 198 147 70
-8 3 28 198 147 70
-8 -2 29 151 112 58
-9 -1 29 198 147 70
-8 -1 29 198 147 70
-7 -1 29 198 147 70
-10 0 29 151 112 58
-9 0 29 198 147 70
-8 0 29 198 147 70
-7 0 29 198 147 70
-6 0 29 151 112 58
-10 1 29 151 112 58
-9 1 29 198 147 70
-8 1 29 198 147 70
-7 1 29 198 147 70
-6 1 29 198 147 70
-9 2 29 198 147 70
-8 2 29 198 147 70
-7 2 29 198 147 70
-8 3 29 198 147 70
-8 -2 30 151 112 58
-9 -1 30 151 112 58
-8 -1 30 151 112 58
-7 -1 30 198 147 70
-10 0 30 80 58 33
-9 0 30 198 147 70
-8 0 30 198 147 70
-7 0 30 198 147 70
-6 0 30 80 58 33
-10 1 30 80 58 33
-9 1 30 198 147 70
-8 1 30 198 147 70
-7 1 30 198 147 70
-6 1 30 80 58 33
-9 2 30 198 147 70
-8 2 30 198 147 70
-7 2 30 198 147 70
-8 3 30 198 147 70
-8 -2 31 198 147 70
-9 -1 31 198 147 70
-8 -1 31 198 147 70
-7 -1 31 151 112 58
-10 0 31 80 58 33
-9 0 31 198 147 70
-8 0 31 198 147 70
-7 0 31 198 147 70
-6 0 31 80 58 33
-10 1 31 80 58 33
-9 1 31 198 147 70
-8 1 31 198 147 70
-7 1 31 198 147 70
-6 1 31 80 58 33
-9 2 31 151 112 58
-8 2 31 198 147 70
-7 2 31 198 147 70
-8 3 31 151 112 58
-8 -2 32 198 147 70
-9 -1 32 198 147 70
-8 -1 32 198 147 70
-7 -1 32 151 112 58
-10 0 32 198 147 70
-9 0 32 198 147 70
-8 0 32 198 147 70
-7 0 32 198 147 70
-6 0 32 198 147 70
-10 1 32 198 147 70
-9 1 32 198 147 70
-8 1 32 198 147 70
-7 1 32 198 147 70
-6 1 32 198 147 70
-9 2 32 151 112 58
-8 2 32 151 112 58
-7 2 32 198 147 70
-8 3 32 151 112 58
-9 -3 33 136 65 46
-8 -3 33 136 65 46
-7 -3 33 181 88 63
-10 -2 33 136 65 46
-9 -2 33 136 65 46
-8 -2 33 136 65 46
-7 -2 33 136 65 46
-6 -2 33 136 65 46
-11 -1 33 136 65 46
-10 -1 33 136 65 46
-9 -1 33 136 65 46
-8 -1 33 198 147 70
-7 -1 33 136 65 46
-6 -1 33 136 65 46
-5 -1 33 181 88 63
-11 0 33 136 65 46
-10 0 33 136 65 46
-9 0 33 136 65 46
-8 0 33 198 147 70
-7 0 33 136 65 46
-6 0 33 136 65 46
-5 0 33 136 65 46
-11 1 33 181 88 63
-10 1 33 136 65 46
-9 1 33 136 65 46
-8 1 33 198 147 70
-7 1 33 136 65 46
-6 1 33 136 65 46
-5 1 33 136 65 46
-11 2 33 136 65 46
-10 2 33 136 65 46
-9 2 33 136 65 46
-8 2 33 198 147 70
-7 2 33 136 65 46
-6 2 33 136 65 46
-5 2 33 181 88 63
-10 3 33 136 65 46
-9 3 33 136 65 46
-8 3 33 198 147 70
-7 3 33 136 65 46
-6 3 33 181 88 63
-9 4 33 136 65 46
-8 4 33 136 65 46
-7 4 33 136 65 46
-8 -3 34 136 65 46
-9 -2 34 181 88 63
-8 -2 34 136 65 46
-7 -2 34 181 88 63
-10 -1 34 136 65 46
-9 -1 34 136 65 46
-8 -1 34 198 147 70
-7 -1 34 136 65 46
-6 -1 34 181 88 63
-11 0 34 181 88 63
-10 0 34 136 65 46
-9 0 34 136 65 46
-8 0 34 198 147 70
-7 0 34 136 65 46
-6 0 34 136 65 46
-5 0 34 181 88 63
-11 1 34 136 65 46
-10 1 34 136 65 46
-9 1 34 136 65 46
-8 1 34 198 147 70
-7 1 34 136 65 46
-6 1 34 136 65 46
-5 1 34 136 65 46
-10 2 34 181 88 63
-9 2 34 136 65 46
-8 2 34 198 147 70
-7 2 34 136 65 46
-6 2 34 136 65 46
-9 3 34 181 88 63
-8 3 34 136 65 46
-7 3 34 136 65 46
-8 4 34 136 65 46
-8 -2 35 136 65 46
-9 -1 35 181 88 63
-8 -1 35 136 65 46
-7 -1 35 136 65 46
-10 0 35 136 65 46
-9 0 35 136 65 46
-8 0 35 80 58 33
-7 0 35 136 65 46
-6 0 35 181 88 63
-10 1 35 181 88 63
-9 1 35 136 65 46
-8 1 35 80 58 33
-7 1 35 136 65 46
-6 1 35 136 65 46
-9 2 35 136 65 46
-8 2 35 136 65 46
-7 2 35 136 65 46
-8 3 35 181 88 63
-8 -1 36 181 88 63
-7 -1 36 136 65 46
-10 0 36 136 65 46
-9 0 36 136 65 46
-8 0 36 80 58 33
-7 0 36 136 65 46
-6 0 36 181 88 63
-10 1 36 181 88 63
-9 1 36 181 88 63
-8 1 36 80 58 33
-7 1 36 136 65 46
-6 1 36 181 88 63
-8 2 36 181 88 63
-8 -4 37 242 60 84
-9 -3 37 242 60 84
-7 -3 37 242 60 84
-8 -2 37 242 60 84
-8 -1 37 136 65 46
-9 0 37 181 88 63
-8 0 37 80 58 33
-7 0 37 181 88 63
-9 1 37 181 88 63
-8 1 37 80 58 33
-7 1 37 181 88 63
-8 2 37 136 65 46
-8 3 37 242 60 84
-9 4 37 242 60 84
-7 4 37 242 60 84
-8 5 37 242 60 84
-9 -4 38 242 60 84
-7 -4 38 242 60 84
-8 -3 38 242 60 84
-9 -2 38 242 60 84
-7 -2 38 242 60 84
-8 0 38 56 139 48
-8 1 38 56 139 48
-9 3 38 242 60 84
-8 3 38 242 60 84
-7 3 38 242 60 84
-8 4 38 242 60 84
-9 5 38 242 60 84
-7 5 38 242 60 84
-8 -4 39 242 60 84
-9 -3 39 242 60 84
-8 -3 39 242 60 84
-7 -3 39 242 60 84
-8 -2 39 242 60 84
-8 0 39 56 139 48
-8 1 39 41 116 71
-8 3 39 242 60 84
-9 4 39 242 60 84
-8 4 39 242 60 84
-7 4 39 242 60 84
-8 5 39 242 60 84
-8 -3 40 56 139 48
-8 0 40 41 116 71
-8 1 40 56 139 48
-8 4 40 41 116 71
-8 -2 41 41 116 71
-8 0 41 56 139 48
-8 1 41 56 139 48
-8 3 41 56 139 48
-8 -1 42 41 116 71
-8 0 42 41 116 71
-8 1 42 56 139 48
-8 2 42 41 116 71
-8 0 43 41 116 71
-8 1 43 56 139 48
