ply
format ascii 1.0
comment : MagicaVoxel @ Ephtracy
element vertex 431
property float x
property float y
property float z
property uchar red
property uchar green
property uchar blue
end_header
-6 -7 0 54 54 54
-5 -7 0 54 54 54
-4 -7 0 54 54 54
-3 -7 0 54 54 54
-2 -7 0 54 54 54
-1 -7 0 242 60 84
0 -7 0 242 60 84
1 -7 0 54 54 54
2 -7 0 54 54 54
3 -7 0 54 54 54
4 -7 0 54 54 54
5 -7 0 54 54 54
-7 -6 0 54 54 54
-1 -6 0 242 60 84
0 -6 0 242 60 84
6 -6 0 54 54 54
-7 -5 0 54 54 54
-1 -5 0 242 60 84
0 -5 0 242 60 84
6 -5 0 54 54 54
-7 -4 0 54 54 54
-6 -4 0 134 60 157
-5 -4 0 134 60 157
-4 -4 0 134 60 157
6 -4 0 54 54 54
-7 -3 0 54 54 54
-6 -3 0 134 60 157
-5 -3 0 134 60 157
-4 -3 0 134 60 157
-2 -3 0 134 60 157
2 -3 0 105 48 125
6 -3 0 54 54 54
-7 -2 0 54 54 54
-6 -2 0 242 60 84
-5 -2 0 242 60 84
6 -2 0 54 54 54
-7 -1 0 54 54 54
-6 -1 0 242 60 84
-5 -1 0 242 60 84
-3 -1 0 57 38 19
3 -1 0 57 38 19
6 -1 0 54 54 54
-7 0 0 54 54 54
-6 0 0 242 60 84
-3 0 0 57 38 19
3 0 0 57 38 19
6 0 0 54 54 54
-7 1 0 54 54 54
6 1 0 54 54 54
-7 2 0 54 54 54
6 2 0 54 54 54
-7 3 0 54 54 54
6 3 0 54 54 54
-7 4 0 54 54 54
-3 4 0 134 60 157
2 4 0 134 60 157
6 4 0 54 54 54
-7 5 0 54 54 54
6 5 0 54 54 54
-6 6 0 54 54 54
-5 6 0 54 54 54
-4 6 0 54 54 54
-3 6 0 54 54 54
-2 6 0 54 54 54
-1 6 0 54 54 54
0 6 0 54 54 54
1 6 0 54 54 54
2 6 0 54 54 54
3 6 0 54 54 54
4 6 0 54 54 54
5 6 0 54 54 54
-6 -7 1 54 54 54
-5 -7 1 54 54 54
-4 -7 1 54 54 54
-3 -7 1 54 54 54
-2 -7 1 54 54 54
1 -7 1 54 54 54
2 -7 1 54 54 54
3 -7 1 54 54 54
4 -7 1 54 54 54
5 -7 1 54 54 54
-7 -6 1 54 54 54
-1 -6 1 134 60 157
6 -6 1 54 54 54
-7 -5 1 54 54 54
6 -5 1 54 54 54
-7 -4 1 54 54 54
-6 -4 1 134 60 157
-5 -4 1 134 60 157
-4 -4 1 134 60 157
6 -4 1 54 54 54
-7 -3 1 54 54 54
-6 -3 1 134 60 157
-5 -3 1 134 60 157
-4 -3 1 134 60 157
-2 -3 1 134 60 157
2 -3 1 134 60 157
6 -3 1 54 54 54
-7 -2 1 54 54 54
-6 -2 1 242 60 84
-5 -2 1 242 60 84
-2 -2 1 134 60 157
-1 -2 1 134 60 157
0 -2 1 134 60 157
1 -2 1 134 60 157
2 -2 1 134 60 157
6 -2 1 54 54 54
-7 -1 1 54 54 54
-3 -1 1 57 38 19
-2 -1 1 134 60 157
-1 -1 1 134 60 157
0 -1 1 134 60 157
1 -1 1 134 60 157
2 -1 1 134 60 157
3 -1 1 57 38 19
6 -1 1 54 54 54
-7 0 1 54 54 54
-3 0 1 57 38 19
-2 0 1 134 60 157
-1 0 1 134 60 157
0 0 1 134 60 157
1 0 1 134 60 157
3 0 1 57 38 19
6 0 1 54 54 54
-7 1 1 54 54 54
-2 1 1 134 60 157
-1 1 1 134 60 157
0 1 1 134 60 157
1 1 1 134 60 157
2 1 1 134 60 157
6 1 1 54 54 54
-7 2 1 54 54 54
-3 2 1 134 60 157
-2 2 1 134 60 157
-1 2 1 134 60 157
0 2 1 134 60 157
1 2 1 134 60 157
2 2 1 134 60 157
6 2 1 54 54 54
-7 3 1 54 54 54
-3 3 1 134 60 157
2 3 1 134 60 157
6 3 1 54 54 54
-7 4 1 54 54 54
-3 4 1 134 60 157
2 4 1 134 60 157
6 4 1 54 54 54
-7 5 1 54 54 54
6 5 1 54 54 54
-6 6 1 54 54 54
-5 6 1 54 54 54
-4 6 1 54 54 54
-3 6 1 54 54 54
-2 6 1 54 54 54
-1 6 1 54 54 54
0 6 1 54 54 54
1 6 1 54 54 54
2 6 1 54 54 54
3 6 1 54 54 54
4 6 1 54 54 54
5 6 1 54 54 54
-6 -7 2 54 54 54
-5 -7 2 54 54 54
-4 -7 2 54 54 54
-3 -7 2 54 54 54
-2 -7 2 54 54 54
-1 -7 2 197 200 189
0 -7 2 197 200 189
1 -7 2 54 54 54
2 -7 2 54 54 54
3 -7 2 54 54 54
4 -7 2 54 54 54
5 -7 2 54 54 54
-7 -6 2 54 54 54
-1 -6 2 134 60 157
6 -6 2 54 54 54
-7 -5 2 54 54 54
6 -5 2 54 54 54
-7 -4 2 54 54 54
-6 -4 2 134 60 157
-5 -4 2 134 60 157
-4 -4 2 134 60 157
6 -4 2 54 54 54
-7 -3 2 54 54 54
-6 -3 2 134 60 157
-5 -3 2 134 60 157
-4 -3 2 134 60 157
-1 -3 2 134 60 157
0 -3 2 105 48 125
1 -3 2 134 60 157
6 -3 2 54 54 54
-7 -2 2 54 54 54
-6 -2 2 242 60 84
-5 -2 2 242 60 84
-1 -2 2 134 60 157
0 -2 2 134 60 157
1 -2 2 134 60 157
2 -2 2 134 60 157
6 -2 2 54 54 54
-7 -1 2 54 54 54
-3 -1 2 57 38 19
-2 -1 2 134 60 157
-1 -1 2 134 60 157
0 -1 2 134 60 157
1 -1 2 134 60 157
2 -1 2 134 60 157
3 -1 2 57 38 19
6 -1 2 54 54 54
-7 0 2 54 54 54
-3 0 2 57 38 19
-2 0 2 134 60 157
-1 0 2 134 60 157
0 0 2 134 60 157
1 0 2 134 60 157
3 0 2 57 38 19
6 0 2 54 54 54
-7 1 2 54 54 54
-2 1 2 134 60 157
-1 1 2 134 60 157
0 1 2 134 60 157
1 1 2 134 60 157
2 1 2 134 60 157
6 1 2 54 54 54
-7 2 2 54 54 54
-3 2 2 134 60 157
-2 2 2 134 60 157
-1 2 2 134 60 157
0 2 2 134 60 157
1 2 2 134 60 157
2 2 2 134 60 157
6 2 2 54 54 54
-7 3 2 54 54 54
-1 3 2 134 60 157
0 3 2 134 60 157
6 3 2 54 54 54
-7 4 2 54 54 54
6 4 2 54 54 54
-7 5 2 54 54 54
6 5 2 54 54 54
-6 6 2 54 54 54
-5 6 2 54 54 54
-4 6 2 54 54 54
-3 6 2 54 54 54
-2 6 2 54 54 54
-1 6 2 54 54 54
0 6 2 54 54 54
1 6 2 54 54 54
2 6 2 54 54 54
3 6 2 54 54 54
4 6 2 54 54 54
5 6 2 54 54 54
-4 -7 3 54 54 54
4 -7 3 54 54 54
-1 -6 3 134 60 157
-7 -5 3 54 54 54
6 -5 3 54 54 54
-6 -4 3 134 60 157
-5 -4 3 134 60 157
-4 -4 3 134 60 157
-1 -4 3 134 60 157
-6 -3 3 134 60 157
-5 -3 3 134 60 157
-4 -3 3 134 60 157
-1 -3 3 134 60 157
0 -3 3 105 48 125
1 -3 3 134 60 157
-6 -2 3 242 60 84
-5 -2 3 242 60 84
-3 -2 3 105 48 125
-2 -2 3 134 60 157
-1 -2 3 134 60 157
0 -2 3 134 60 157
1 -2 3 134 60 157
2 -2 3 134 60 157
-7 -1 3 54 54 54
-3 -1 3 57 38 19
-2 -1 3 105 48 125
-1 -1 3 134 60 157
0 -1 3 134 60 157
1 -1 3 134 60 157
2 -1 3 134 60 157
3 -1 3 57 38 19
6 -1 3 54 54 54
-3 0 3 57 38 19
-2 0 3 105 48 125
-1 0 3 134 60 157
0 0 3 134 60 157
1 0 3 134 60 157
3 0 3 57 38 19
-2 1 3 105 48 125
-1 1 3 55 101 195
0 1 3 134 60 157
1 1 3 105 48 125
-2 2 3 105 48 125
-1 2 3 134 60 157
0 2 3 134 60 157
1 2 3 134 60 157
-7 3 3 54 54 54
-1 3 3 134 60 157
0 3 3 206 96 200
6 3 3 54 54 54
-1 4 3 134 60 157
0 4 3 134 60 157
-5 6 3 54 54 54
-1 6 3 54 54 54
3 6 3 54 54 54
-1 -6 4 134 60 157
-1 -5 4 134 60 157
-1 -4 4 134 60 157
-1 -3 4 105 48 125
0 -3 4 105 48 125
1 -3 4 134 60 157
-3 -2 4 105 48 125
-1 -2 4 105 48 125
0 -2 4 134 60 157
1 -2 4 206 96 200
2 -2 4 105 48 125
3 -2 4 105 48 125
-3 -1 4 57 38 19
-1 -1 4 134 60 157
0 -1 4 206 96 200
1 -1 4 134 60 157
3 -1 4 57 38 19
-3 0 4 57 38 19
-1 0 4 206 96 200
0 0 4 105 48 125
3 0 4 57 38 19
-1 1 4 105 48 125
0 1 4 105 48 125
-1 2 4 105 48 125
0 2 4 134 60 157
-1 3 4 134 60 157
0 3 4 105 48 125
-1 4 4 134 60 157
0 4 4 134 60 157
1 -4 5 134 60 157
1 -3 5 105 48 125
-3 -2 5 134 60 157
3 -2 5 105 48 125
-3 -1 5 57 38 19
-2 -1 5 57 38 19
-1 -1 5 57 38 19
0 -1 5 57 38 19
1 -1 5 57 38 19
2 -1 5 57 38 19
3 -1 5 57 38 19
-3 0 5 57 38 19
-2 0 5 57 38 19
-1 0 5 57 38 19
0 0 5 57 38 19
1 0 5 57 38 19
2 0 5 57 38 19
3 0 5 57 38 19
0 4 5 134 60 157
1 -4 6 134 60 157
-3 -2 6 134 60 157
3 -2 6 242 60 84
0 4 6 134 60 157
1 -4 7 105 48 125
-3 -2 7 134 60 157
0 4 7 134 60 157
0 -6 8 134 60 157
1 -6 8 105 48 125
0 -5 8 134 60 157
1 -5 8 134 60 157
0 -4 8 134 60 157
1 -4 8 134 60 157
0 -3 8 105 48 125
1 -3 8 105 48 125
-3 -2 8 134 60 157
0 5 8 134 60 157
0 -5 9 134 60 157
1 -5 9 134 60 157
-1 -4 9 134 60 157
0 -4 9 134 60 157
1 -4 9 134 60 157
2 -4 9 134 60 157
-5 -3 9 242 60 84
0 -3 9 105 48 125
1 -3 9 105 48 125
-5 -2 9 134 60 157
-4 -2 9 134 60 157
-3 -2 9 105 48 125
-5 -1 9 134 60 157
-4 -1 9 134 60 157
0 -6 10 105 48 125
1 -6 10 134 60 157
-1 -5 10 255 225 0
0 -5 10 134 60 157
1 -5 10 206 96 200
2 -5 10 255 225 0
-1 -4 10 134 60 157
0 -4 10 105 48 125
1 -4 10 105 48 125
2 -4 10 134 60 157
-5 -3 10 242 60 84
-5 -2 10 242 60 84
-4 -2 10 134 60 157
-3 -2 10 105 48 125
-2 -2 10 134 60 157
-4 -1 10 134 60 157
-3 -1 10 134 60 157
-2 -1 10 134 60 157
-1 -4 11 134 60 157
2 -4 11 105 48 125
-3 -3 11 206 96 200
-4 -2 11 134 60 157
-3 -2 11 134 60 157
-2 -2 11 105 48 125
-1 -2 11 105 48 125
-4 -1 11 134 60 157
-3 -1 11 134 60 157
-2 -1 11 134 60 157
-1 -1 11 134 60 157
-3 0 11 206 96 200
-4 -3 12 255 225 0
-3 -3 12 206 96 200
-6 -2 12 134 60 157
-5 -2 12 134 60 157
-4 -2 12 134 60 157
-3 -2 12 134 60 157
-6 -1 12 134 60 157
-5 -1 12 134 60 157
-4 -1 12 206 96 200
-3 -1 12 134 60 157
-2 -1 12 134 60 157
-1 -1 12 206 96 200
-4 0 12 255 225 0
-3 0 12 105 48 125
-3 -3 13 105 48 125
-3 0 13 206 96 200
