ply
format ascii 1.0
comment : MagicaVoxel @ Ephtracy
element vertex 936
property float x
property float y
property float z
property uchar red
property uchar green
property uchar blue
end_header
-6 -22 0 54 54 54
-5 -22 0 54 54 54
-4 -22 0 54 54 54
-3 -22 0 54 54 54
-2 -22 0 54 54 54
-1 -22 0 54 54 54
0 -22 0 54 54 54
1 -22 0 54 54 54
2 -22 0 54 54 54
3 -22 0 54 54 54
4 -22 0 54 54 54
5 -22 0 54 54 54
-6 -21 0 54 54 54
-5 -21 0 86 86 86
-4 -21 0 86 86 86
-3 -21 0 86 86 86
-2 -21 0 86 86 86
-1 -21 0 86 86 86
0 -21 0 86 86 86
1 -21 0 86 86 86
2 -21 0 86 86 86
3 -21 0 86 86 86
4 -21 0 86 86 86
5 -21 0 54 54 54
-6 -20 0 54 54 54
-5 -20 0 86 86 86
-4 -20 0 86 86 86
-3 -20 0 86 86 86
-2 -20 0 86 86 86
-1 -20 0 86 86 86
0 -20 0 86 86 86
1 -20 0 86 86 86
2 -20 0 86 86 86
3 -20 0 86 86 86
4 -20 0 86 86 86
5 -20 0 54 54 54
-6 -19 0 54 54 54
-5 -19 0 86 86 86
-4 -19 0 86 86 86
-3 -19 0 86 86 86
-2 -19 0 86 86 86
-1 -19 0 86 86 86
0 -19 0 86 86 86
1 -19 0 86 86 86
2 -19 0 86 86 86
3 -19 0 86 86 86
4 -19 0 86 86 86
5 -19 0 54 54 54
-6 -18 0 54 54 54
-5 -18 0 86 86 86
-4 -18 0 86 86 86
-3 -18 0 86 86 86
-2 -18 0 86 86 86
-1 -18 0 86 86 86
0 -18 0 86 86 86
1 -18 0 86 86 86
2 -18 0 86 86 86
3 -18 0 86 86 86
4 -18 0 86 86 86
5 -18 0 54 54 54
-6 -17 0 54 54 54
-5 -17 0 86 86 86
-4 -17 0 86 86 86
-3 -17 0 86 86 86
-2 -17 0 86 86 86
-1 -17 0 86 86 86
0 -17 0 86 86 86
1 -17 0 86 86 86
2 -17 0 86 86 86
3 -17 0 86 86 86
4 -17 0 86 86 86
5 -17 0 54 54 54
-6 -16 0 54 54 54
-5 -16 0 86 86 86
-4 -16 0 86 86 86
-3 -16 0 86 86 86
-2 -16 0 86 86 86
-1 -16 0 86 86 86
0 -16 0 86 86 86
1 -16 0 86 86 86
2 -16 0 86 86 86
3 -16 0 86 86 86
4 -16 0 86 86 86
5 -16 0 54 54 54
-6 -15 0 54 54 54
-5 -15 0 54 54 54
-4 -15 0 54 54 54
-3 -15 0 54 54 54
-2 -15 0 54 54 54
-1 -15 0 54 54 54
0 -15 0 54 54 54
1 -15 0 54 54 54
2 -15 0 54 54 54
3 -15 0 54 54 54
4 -15 0 54 54 54
5 -15 0 54 54 54
-4 -14 0 80 58 33
-3 -13 0 114 114 114
-2 -13 0 86 86 86
-4 -12 0 80 58 33
-3 -12 0 57 38 19
0 -12 0 80 58 33
5 -12 0 80 58 33
-6 -22 1 54 54 54
-5 -22 1 114 114 114
-4 -22 1 114 114 114
-3 -22 1 114 114 114
-2 -22 1 114 114 114
-1 -22 1 114 114 114
0 -22 1 114 114 114
1 -22 1 86 86 86
2 -22 1 114 114 114
3 -22 1 114 114 114
4 -22 1 114 114 114
5 -22 1 54 54 54
5 -21 1 114 114 114
5 -20 1 114 114 114
5 -19 1 86 86 86
5 -18 1 114 114 114
5 -17 1 114 114 114
5 -16 1 114 114 114
-6 -15 1 54 54 54
-1 -15 1 54 54 54
0 -15 1 54 54 54
5 -15 1 54 54 54
-4 -14 1 80 58 33
-3 -14 1 80 58 33
-2 -13 1 86 86 86
-1 -13 1 86 86 86
-3 -12 1 80 58 33
-2 -12 1 57 38 19
0 -12 1 80 58 33
5 -12 1 80 58 33
-6 -22 2 54 54 54
-5 -22 2 86 86 86
-4 -22 2 114 114 114
-3 -22 2 114 114 114
-2 -22 2 86 86 86
-1 -22 2 86 86 86
0 -22 2 86 86 86
1 -22 2 86 86 86
2 -22 2 86 86 86
3 -22 2 114 114 114
4 -22 2 86 86 86
5 -22 2 54 54 54
5 -21 2 114 114 114
5 -20 2 86 86 86
5 -19 2 86 86 86
5 -18 2 86 86 86
5 -17 2 114 114 114
5 -16 2 86 86 86
-6 -15 2 54 54 54
-1 -15 2 54 54 54
0 -15 2 54 54 54
5 -15 2 54 54 54
-3 -14 2 80 58 33
-2 -14 2 80 58 33
-1 -13 2 86 86 86
0 -13 2 114 114 114
-2 -12 2 80 58 33
-1 -12 2 57 38 19
0 -12 2 80 58 33
5 -12 2 80 58 33
0 -11 2 80 58 33
5 -11 2 80 58 33
0 -10 2 80 58 33
5 -10 2 80 58 33
-6 -22 3 86 86 86
-5 -22 3 86 86 86
-4 -22 3 86 86 86
-3 -22 3 86 86 86
-2 -22 3 114 114 114
-1 -22 3 86 86 86
0 -22 3 86 86 86
1 -22 3 114 114 114
2 -22 3 86 86 86
3 -22 3 86 86 86
4 -22 3 86 86 86
5 -22 3 114 114 114
5 -21 3 86 86 86
5 -20 3 114 114 114
5 -19 3 86 86 86
5 -18 3 114 114 114
5 -17 3 86 86 86
5 -16 3 114 114 114
-6 -15 3 86 86 86
-1 -15 3 86 86 86
0 -15 3 86 86 86
5 -15 3 114 114 114
-2 -14 3 80 58 33
-1 -14 3 80 58 33
0 -13 3 114 114 114
1 -13 3 114 114 114
-1 -12 3 80 58 33
0 -12 3 57 38 19
5 -12 3 80 58 33
0 -9 3 37 79 142
1 -9 3 15 134 213
2 -9 3 37 79 142
3 -9 3 15 134 213
4 -9 3 15 134 213
5 -9 3 37 79 142
-6 -22 4 86 86 86
-5 -22 4 86 86 86
-4 -22 4 114 114 114
-3 -22 4 114 114 114
-2 -22 4 86 86 86
-1 -22 4 114 114 114
0 -22 4 86 86 86
1 -22 4 86 86 86
2 -22 4 86 86 86
3 -22 4 86 86 86
4 -22 4 114 114 114
5 -22 4 114 114 114
-6 -21 4 135 138 130
5 -21 4 114 114 114
5 -20 4 86 86 86
5 -19 4 86 86 86
5 -18 4 86 86 86
5 -17 4 86 86 86
-6 -16 4 135 138 130
5 -16 4 86 86 86
-6 -15 4 86 86 86
-5 -15 4 135 138 130
-2 -15 4 135 138 130
-1 -15 4 86 86 86
0 -15 4 86 86 86
1 -15 4 135 138 130
4 -15 4 135 138 130
5 -15 4 114 114 114
-1 -14 4 80 58 33
0 -14 4 80 58 33
1 -13 4 86 86 86
2 -13 4 86 86 86
0 -12 4 80 58 33
1 -12 4 57 38 19
5 -12 4 80 58 33
0 -11 4 37 79 142
1 -11 4 15 134 213
2 -11 4 15 134 213
3 -11 4 15 134 213
4 -11 4 37 79 142
5 -11 4 15 134 213
0 -10 4 15 134 213
1 -10 4 37 79 142
2 -10 4 15 134 213
3 -10 4 37 79 142
4 -10 4 15 134 213
5 -10 4 37 79 142
-6 -22 5 86 86 86
-5 -22 5 114 114 114
-4 -22 5 86 86 86
-3 -22 5 114 114 114
-2 -22 5 86 86 86
-1 -22 5 114 114 114
0 -22 5 86 86 86
1 -22 5 86 86 86
2 -22 5 114 114 114
3 -22 5 114 114 114
4 -22 5 114 114 114
5 -22 5 86 86 86
-6 -21 5 114 114 114
5 -21 5 114 114 114
-6 -20 5 135 138 130
5 -20 5 86 86 86
-6 -19 5 135 138 130
5 -19 5 114 114 114
-6 -18 5 135 138 130
5 -18 5 86 86 86
-6 -17 5 135 138 130
5 -17 5 114 114 114
-6 -16 5 114 114 114
5 -16 5 114 114 114
-6 -15 5 86 86 86
-5 -15 5 86 86 86
-4 -15 5 135 138 130
-3 -15 5 135 138 130
-2 -15 5 114 114 114
-1 -15 5 86 86 86
0 -15 5 86 86 86
1 -15 5 114 114 114
2 -15 5 135 138 130
3 -15 5 135 138 130
4 -15 5 114 114 114
5 -15 5 114 114 114
0 -14 5 80 58 33
5 -14 5 57 38 19
2 -13 5 86 86 86
3 -13 5 86 86 86
4 -13 5 54 54 54
5 -13 5 57 38 19
1 -12 5 80 58 33
2 -12 5 57 38 19
3 -12 5 57 38 19
4 -12 5 57 38 19
5 -12 5 57 38 19
-6 -22 6 57 38 19
-5 -22 6 80 58 33
-4 -22 6 80 58 33
-3 -22 6 80 58 33
-2 -22 6 57 38 19
-1 -22 6 80 58 33
0 -22 6 80 58 33
1 -22 6 57 38 19
2 -22 6 80 58 33
3 -22 6 80 58 33
4 -22 6 80 58 33
5 -22 6 57 38 19
-6 -21 6 80 58 33
-5 -21 6 86 86 86
-4 -21 6 86 86 86
-3 -21 6 86 86 86
-2 -21 6 86 86 86
-1 -21 6 86 86 86
0 -21 6 86 86 86
1 -21 6 86 86 86
2 -21 6 86 86 86
3 -21 6 86 86 86
4 -21 6 86 86 86
5 -21 6 80 58 33
-6 -20 6 80 58 33
-5 -20 6 86 86 86
-4 -20 6 86 86 86
-3 -20 6 86 86 86
-2 -20 6 86 86 86
-1 -20 6 86 86 86
0 -20 6 86 86 86
1 -20 6 86 86 86
2 -20 6 86 86 86
3 -20 6 86 86 86
4 -20 6 86 86 86
5 -20 6 80 58 33
-6 -19 6 80 58 33
-5 -19 6 86 86 86
-4 -19 6 86 86 86
-3 -19 6 86 86 86
-2 -19 6 86 86 86
-1 -19 6 86 86 86
0 -19 6 86 86 86
1 -19 6 86 86 86
2 -19 6 86 86 86
3 -19 6 86 86 86
4 -19 6 86 86 86
5 -19 6 80 58 33
-6 -18 6 57 38 19
-5 -18 6 86 86 86
-4 -18 6 86 86 86
-3 -18 6 86 86 86
-2 -18 6 86 86 86
-1 -18 6 86 86 86
0 -18 6 86 86 86
1 -18 6 86 86 86
2 -18 6 86 86 86
3 -18 6 86 86 86
4 -18 6 86 86 86
5 -18 6 57 38 19
-6 -17 6 80 58 33
-5 -17 6 86 86 86
-4 -17 6 86 86 86
-3 -17 6 86 86 86
-2 -17 6 86 86 86
-1 -17 6 86 86 86
0 -17 6 86 86 86
1 -17 6 86 86 86
2 -17 6 86 86 86
3 -17 6 86 86 86
4 -17 6 86 86 86
5 -17 6 80 58 33
-6 -16 6 80 58 33
-5 -16 6 86 86 86
-4 -16 6 86 86 86
-3 -16 6 86 86 86
-2 -16 6 86 86 86
-1 -16 6 86 86 86
0 -16 6 86 86 86
1 -16 6 86 86 86
2 -16 6 86 86 86
3 -16 6 86 86 86
4 -16 6 86 86 86
5 -16 6 80 58 33
-6 -15 6 80 58 33
-5 -15 6 57 38 19
-4 -15 6 57 38 19
-3 -15 6 57 38 19
-2 -15 6 57 38 19
-1 -15 6 57 38 19
0 -15 6 57 38 19
1 -15 6 57 38 19
2 -15 6 57 38 19
3 -15 6 57 38 19
4 -15 6 57 38 19
5 -15 6 80 58 33
-6 -14 6 57 38 19
-5 -14 6 57 38 19
-4 -14 6 57 38 19
-3 -14 6 57 38 19
-2 -14 6 57 38 19
-1 -14 6 57 38 19
0 -14 6 57 38 19
1 -14 6 57 38 19
2 -14 6 57 38 19
3 -14 6 57 38 19
4 -14 6 57 38 19
5 -14 6 57 38 19
5 -13 6 80 58 33
2 -12 6 80 58 33
3 -12 6 80 58 33
4 -12 6 80 58 33
5 -12 6 80 58 33
-4 -23 7 136 65 46
3 -23 7 136 65 46
-6 -22 7 80 58 33
-5 -22 7 198 147 70
-4 -22 7 198 147 70
-3 -22 7 198 147 70
-2 -22 7 80 58 33
-1 -22 7 198 147 70
0 -22 7 198 147 70
1 -22 7 80 58 33
2 -22 7 198 147 70
3 -22 7 198 147 70
4 -22 7 198 147 70
5 -22 7 80 58 33
-6 -21 7 198 147 70
5 -21 7 198 147 70
-7 -20 7 136 65 46
-6 -20 7 198 147 70
5 -20 7 198 147 70
6 -20 7 136 65 46
-6 -19 7 198 147 70
5 -19 7 198 147 70
-6 -18 7 80 58 33
5 -18 7 80 58 33
-6 -17 7 198 147 70
5 -17 7 198 147 70
-7 -16 7 136 65 46
-6 -16 7 198 147 70
5 -16 7 198 147 70
6 -16 7 136 65 46
-6 -15 7 198 147 70
3 -15 7 54 54 54
4 -15 7 54 54 54
5 -15 7 198 147 70
-6 -14 7 80 58 33
-5 -14 7 198 147 70
-4 -14 7 198 147 70
-3 -14 7 198 147 70
-2 -14 7 57 38 19
-1 -14 7 198 147 70
0 -14 7 198 147 70
1 -14 7 57 38 19
2 -14 7 198 147 70
5 -14 7 80 58 33
-4 -13 7 136 65 46
-6 -22 8 80 58 33
-5 -22 8 198 147 70
-3 -22 8 198 147 70
-2 -22 8 80 58 33
-1 -22 8 198 147 70
0 -22 8 198 147 70
1 -22 8 80 58 33
2 -22 8 198 147 70
4 -22 8 198 147 70
5 -22 8 80 58 33
-6 -21 8 198 147 70
-4 -21 8 255 225 0
3 -21 8 255 225 0
5 -21 8 198 147 70
-5 -20 8 255 225 0
4 -20 8 255 225 0
-6 -19 8 198 147 70
5 -19 8 198 147 70
-6 -18 8 80 58 33
5 -18 8 80 58 33
-6 -17 8 198 147 70
5 -17 8 198 147 70
-5 -16 8 54 54 54
4 -16 8 54 54 54
-6 -15 8 198 147 70
-4 -15 8 255 225 0
3 -15 8 54 54 54
4 -15 8 54 54 54
5 -15 8 198 147 70
-6 -14 8 80 58 33
-5 -14 8 198 147 70
-3 -14 8 198 147 70
-2 -14 8 80 58 33
-1 -14 8 198 147 70
0 -14 8 198 147 70
1 -14 8 80 58 33
2 -14 8 198 147 70
5 -14 8 80 58 33
-6 -22 9 80 58 33
-5 -22 9 198 147 70
-4 -22 9 198 147 70
-3 -22 9 198 147 70
-2 -22 9 80 58 33
-1 -22 9 198 147 70
0 -22 9 198 147 70
1 -22 9 80 58 33
2 -22 9 198 147 70
3 -22 9 198 147 70
4 -22 9 198 147 70
5 -22 9 80 58 33
-6 -21 9 198 147 70
5 -21 9 198 147 70
-6 -20 9 198 147 70
5 -20 9 198 147 70
-6 -19 9 198 147 70
5 -19 9 198 147 70
-6 -18 9 80 58 33
5 -18 9 80 58 33
-6 -17 9 198 147 70
5 -17 9 198 147 70
-6 -16 9 198 147 70
5 -16 9 198 147 70
-6 -15 9 198 147 70
3 -15 9 54 54 54
4 -15 9 54 54 54
5 -15 9 198 147 70
-6 -14 9 80 58 33
-5 -14 9 198 147 70
-4 -14 9 198 147 70
-3 -14 9 198 147 70
-2 -14 9 80 58 33
-1 -14 9 198 147 70
0 -14 9 198 147 70
1 -14 9 80 58 33
2 -14 9 198 147 70
5 -14 9 80 58 33
-2 -13 9 57 38 19
1 -13 9 57 38 19
-2 -12 9 80 58 33
1 -12 9 80 58 33
-2 -11 9 80 58 33
1 -11 9 80 58 33
-6 -22 10 80 58 33
-5 -22 10 80 58 33
-4 -22 10 80 58 33
-3 -22 10 80 58 33
-2 -22 10 80 58 33
-1 -22 10 80 58 33
0 -22 10 80 58 33
1 -22 10 80 58 33
2 -22 10 80 58 33
3 -22 10 80 58 33
4 -22 10 80 58 33
5 -22 10 80 58 33
-6 -21 10 80 58 33
5 -21 10 80 58 33
-6 -20 10 80 58 33
5 -20 10 80 58 33
-6 -19 10 80 58 33
5 -19 10 80 58 33
-6 -18 10 80 58 33
5 -18 10 80 58 33
-6 -17 10 80 58 33
5 -17 10 80 58 33
-6 -16 10 80 58 33
5 -16 10 80 58 33
-6 -15 10 80 58 33
5 -15 10 80 58 33
-6 -14 10 80 58 33
-5 -14 10 80 58 33
-4 -14 10 80 58 33
-3 -14 10 80 58 33
-2 -14 10 57 38 19
-1 -14 10 80 58 33
0 -14 10 80 58 33
1 -14 10 57 38 19
2 -14 10 80 58 33
3 -14 10 80 58 33
4 -14 10 80 58 33
5 -14 10 80 58 33
-3 -12 10 134 60 157
-2 -12 10 37 79 142
-1 -12 10 134 60 157
0 -12 10 37 79 142
1 -12 10 134 60 157
2 -12 10 37 79 142
-3 -11 10 134 60 157
-2 -11 10 37 79 142
-1 -11 10 134 60 157
0 -11 10 37 79 142
1 -11 10 134 60 157
2 -11 10 37 79 142
-6 -22 11 80 58 33
-5 -22 11 198 147 70
-4 -22 11 198 147 70
-3 -22 11 198 147 70
-2 -22 11 80 58 33
-1 -22 11 198 147 70
0 -22 11 198 147 70
1 -22 11 80 58 33
2 -22 11 198 147 70
3 -22 11 198 147 70
4 -22 11 198 147 70
5 -22 11 80 58 33
-6 -21 11 198 147 70
5 -21 11 198 147 70
-7 -20 11 136 65 46
-6 -20 11 198 147 70
5 -20 11 198 147 70
6 -20 11 136 65 46
-6 -19 11 198 147 70
5 -19 11 198 147 70
-6 -18 11 80 58 33
5 -18 11 80 58 33
-6 -17 11 198 147 70
5 -17 11 198 147 70
-7 -16 11 136 65 46
-6 -16 11 198 147 70
5 -16 11 198 147 70
6 -16 11 136 65 46
-6 -15 11 198 147 70
5 -15 11 198 147 70
-6 -14 11 80 58 33
-5 -14 11 198 147 70
-4 -14 11 198 147 70
-3 -14 11 198 147 70
-2 -14 11 57 38 19
-1 -14 11 198 147 70
0 -14 11 198 147 70
1 -14 11 57 38 19
2 -14 11 198 147 70
3 -14 11 198 147 70
4 -14 11 198 147 70
5 -14 11 80 58 33
-3 -13 11 134 60 157
-2 -13 11 37 79 142
-1 -13 11 134 60 157
0 -13 11 37 79 142
1 -13 11 134 60 157
2 -13 11 37 79 142
-7 -23 12 136 65 46
-6 -23 12 136 65 46
-5 -23 12 136 65 46
-4 -23 12 181 88 63
-3 -23 12 136 65 46
-2 -23 12 136 65 46
-1 -23 12 136 65 46
0 -23 12 181 88 63
1 -23 12 136 65 46
2 -23 12 136 65 46
3 -23 12 136 65 46
4 -23 12 136 65 46
5 -23 12 181 88 63
6 -23 12 136 65 46
-6 -22 12 57 38 19
-5 -22 12 151 112 58
-4 -22 12 151 112 58
-3 -22 12 151 112 58
-2 -22 12 57 38 19
-1 -22 12 151 112 58
0 -22 12 151 112 58
1 -22 12 57 38 19
2 -22 12 151 112 58
3 -22 12 151 112 58
4 -22 12 151 112 58
5 -22 12 57 38 19
-6 -21 12 198 147 70
5 -21 12 198 147 70
-5 -20 12 54 54 54
4 -20 12 54 54 54
-6 -19 12 198 147 70
5 -19 12 198 147 70
-6 -18 12 80 58 33
5 -18 12 80 58 33
-6 -17 12 198 147 70
5 -17 12 198 147 70
-5 -16 12 255 225 0
4 -16 12 255 225 0
-6 -15 12 198 147 70
5 -15 12 198 147 70
-6 -14 12 57 38 19
-5 -14 12 57 38 19
-4 -14 12 57 38 19
-3 -14 12 57 38 19
-2 -14 12 57 38 19
-1 -14 12 57 38 19
0 -14 12 57 38 19
1 -14 12 57 38 19
2 -14 12 57 38 19
3 -14 12 57 38 19
4 -14 12 57 38 19
5 -14 12 57 38 19
-7 -13 12 136 65 46
-6 -13 12 136 65 46
-5 -13 12 181 88 63
-4 -13 12 136 65 46
-3 -13 12 136 65 46
-2 -13 12 181 88 63
-1 -13 12 136 65 46
0 -13 12 136 65 46
1 -13 12 136 65 46
2 -13 12 136 65 46
3 -13 12 136 65 46
4 -13 12 136 65 46
5 -13 12 181 88 63
6 -13 12 136 65 46
-7 -22 13 136 65 46
-6 -22 13 181 88 63
-5 -22 13 136 65 46
-4 -22 13 136 65 46
-3 -22 13 136 65 46
-2 -22 13 181 88 63
-1 -22 13 136 65 46
0 -22 13 136 65 46
1 -22 13 136 65 46
2 -22 13 136 65 46
3 -22 13 181 88 63
4 -22 13 136 65 46
5 -22 13 136 65 46
6 -22 13 136 65 46
-6 -21 13 151 112 58
5 -21 13 151 112 58
-5 -20 13 54 54 54
4 -20 13 54 54 54
-6 -19 13 198 147 70
5 -19 13 198 147 70
-6 -18 13 80 58 33
5 -18 13 80 58 33
-6 -17 13 198 147 70
5 -17 13 198 147 70
-5 -16 13 255 225 0
4 -16 13 255 225 0
-6 -15 13 151 112 58
5 -15 13 151 112 58
-7 -14 13 136 65 46
-6 -14 13 136 65 46
-5 -14 13 136 65 46
-4 -14 13 136 65 46
-3 -14 13 136 65 46
-2 -14 13 80 58 33
-1 -14 13 136 65 46
0 -14 13 136 65 46
1 -14 13 80 58 33
2 -14 13 181 88 63
3 -14 13 136 65 46
4 -14 13 181 88 63
5 -14 13 136 65 46
6 -14 13 136 65 46
-7 -21 14 136 65 46
-6 -21 14 136 65 46
-5 -21 14 181 88 63
-4 -21 14 136 65 46
-3 -21 14 181 88 63
-2 -21 14 136 65 46
-1 -21 14 136 65 46
0 -21 14 136 65 46
1 -21 14 181 88 63
2 -21 14 181 88 63
3 -21 14 136 65 46
4 -21 14 181 88 63
5 -21 14 136 65 46
6 -21 14 136 65 46
-6 -20 14 151 112 58
5 -20 14 151 112 58
-6 -19 14 198 147 70
5 -19 14 198 147 70
-6 -18 14 80 58 33
5 -18 14 80 58 33
-6 -17 14 198 147 70
5 -17 14 198 147 70
-6 -16 14 151 112 58
5 -16 14 151 112 58
-7 -15 14 136 65 46
-6 -15 14 136 65 46
-5 -15 14 181 88 63
-4 -15 14 136 65 46
-3 -15 14 136 65 46
-1 -15 14 255 225 0
0 -15 14 255 225 0
1 -15 14 181 88 63
2 -15 14 136 65 46
3 -15 14 181 88 63
4 -15 14 136 65 46
5 -15 14 181 88 63
6 -15 14 136 65 46
-3 -14 14 181 88 63
-2 -14 14 57 38 19
1 -14 14 57 38 19
2 -14 14 181 88 63
-3 -13 14 136 65 46
2 -13 14 136 65 46
-5 -21 15 86 86 86
-4 -21 15 86 86 86
-7 -20 15 136 65 46
-6 -20 15 136 65 46
-5 -20 15 181 88 63
-4 -20 15 181 88 63
-3 -20 15 181 88 63
-2 -20 15 181 88 63
-1 -20 15 181 88 63
0 -20 15 181 88 63
1 -20 15 136 65 46
2 -20 15 181 88 63
3 -20 15 181 88 63
4 -20 15 181 88 63
5 -20 15 136 65 46
6 -20 15 136 65 46
-6 -19 15 57 38 19
5 -19 15 57 38 19
-6 -18 15 80 58 33
5 -18 15 80 58 33
-6 -17 15 57 38 19
5 -17 15 57 38 19
-7 -16 15 136 65 46
-6 -16 15 181 88 63
-5 -16 15 136 65 46
-4 -16 15 181 88 63
-3 -16 15 136 65 46
1 -16 15 181 88 63
2 -16 15 136 65 46
3 -16 15 181 88 63
4 -16 15 181 88 63
5 -16 15 136 65 46
6 -16 15 136 65 46
-2 -15 15 136 65 46
-1 -15 15 255 225 0
0 -15 15 255 225 0
1 -15 15 136 65 46
-2 -14 15 181 88 63
1 -14 15 181 88 63
-2 -13 15 136 65 46
1 -13 15 136 65 46
-5 -21 16 114 114 114
-4 -21 16 86 86 86
-5 -20 16 86 86 86
-4 -20 16 86 86 86
-7 -19 16 136 65 46
-6 -19 16 136 65 46
-5 -19 16 57 38 19
-4 -19 16 57 38 19
-3 -19 16 136 65 46
-2 -19 16 136 65 46
-1 -19 16 136 65 46
0 -19 16 136 65 46
1 -19 16 136 65 46
2 -19 16 136 65 46
3 -19 16 181 88 63
4 -19 16 136 65 46
5 -19 16 136 65 46
6 -19 16 136 65 46
-6 -18 16 57 38 19
5 -18 16 57 38 19
-7 -17 16 181 88 63
-6 -17 16 136 65 46
-5 -17 16 136 65 46
-4 -17 16 136 65 46
-3 -17 16 136 65 46
1 -17 16 136 65 46
2 -17 16 136 65 46
3 -17 16 136 65 46
4 -17 16 136 65 46
5 -17 16 136 65 46
6 -17 16 136 65 46
-3 -16 16 136 65 46
-2 -16 16 181 88 63
1 -16 16 136 65 46
-2 -15 16 181 88 63
1 -15 16 136 65 46
-2 -14 16 136 65 46
-1 -14 16 198 147 70
0 -14 16 198 147 70
1 -14 16 181 88 63
-2 -13 16 181 88 63
1 -13 16 181 88 63
-5 -21 17 86 86 86
-4 -21 17 114 114 114
-5 -20 17 114 114 114
-4 -20 17 86 86 86
-7 -19 17 136 65 46
-6 -19 17 136 65 46
-5 -19 17 136 65 46
-4 -19 17 136 65 46
-3 -19 17 136 65 46
-2 -19 17 181 88 63
-1 -19 17 181 88 63
0 -19 17 181 88 63
1 -19 17 136 65 46
2 -19 17 181 88 63
3 -19 17 136 65 46
4 -19 17 181 88 63
5 -19 17 181 88 63
6 -19 17 136 65 46
-6 -18 17 57 38 19
5 -18 17 57 38 19
-7 -17 17 136 65 46
-6 -17 17 181 88 63
-5 -17 17 136 65 46
-4 -17 17 181 88 63
-3 -17 17 181 88 63
-2 -17 17 181 88 63
-1 -17 17 181 88 63
0 -17 17 136 65 46
1 -17 17 181 88 63
2 -17 17 136 65 46
3 -17 17 181 88 63
4 -17 17 136 65 46
5 -17 17 181 88 63
6 -17 17 136 65 46
-1 -16 17 181 88 63
0 -16 17 181 88 63
-1 -15 17 136 65 46
0 -15 17 181 88 63
-1 -14 17 181 88 63
0 -14 17 136 65 46
-1 -13 17 136 65 46
0 -13 17 181 88 63
-5 -21 18 114 114 114
-4 -21 18 114 114 114
-5 -20 18 86 86 86
-4 -20 18 114 114 114
-7 -18 18 181 88 63
-6 -18 18 181 88 63
-5 -18 18 181 88 63
-4 -18 18 136 65 46
-3 -18 18 136 65 46
-2 -18 18 181 88 63
-1 -18 18 181 88 63
0 -18 18 136 65 46
1 -18 18 181 88 63
2 -18 18 181 88 63
3 -18 18 181 88 63
4 -18 18 181 88 63
5 -18 18 181 88 63
6 -18 18 136 65 46
-5 -22 19 86 86 86
-4 -22 19 114 114 114
-6 -21 19 114 114 114
-3 -21 19 114 114 114
-6 -20 19 114 114 114
-3 -20 19 86 86 86
-5 -19 19 114 114 114
-4 -19 19 86 86 86
