ply
format ascii 1.0
comment : MagicaVoxel @ Ephtracy
element vertex 152
property float x
property float y
property float z
property uchar red
property uchar green
property uchar blue
end_header
-1 -3 0 86 86 86
0 -3 0 114 114 114
1 -3 0 86 86 86
-2 -2 0 114 114 114
-1 -2 0 55 101 195
0 -2 0 55 101 195
1 -2 0 11 65 145
2 -2 0 86 86 86
-2 -1 0 86 86 86
-1 -1 0 55 101 195
0 -1 0 11 65 145
1 -1 0 37 79 142
2 -1 0 86 86 86
-2 0 0 86 86 86
-1 0 0 55 101 195
0 0 0 11 65 145
1 0 0 37 79 142
2 0 0 86 86 86
-2 1 0 86 86 86
-1 1 0 11 65 145
0 1 0 37 79 142
1 1 0 37 79 142
2 1 0 114 114 114
-1 2 0 86 86 86
0 2 0 86 86 86
1 2 0 86 86 86
6 2 0 57 38 19
7 2 0 57 38 19
5 3 0 86 86 86
6 5 0 57 38 19
7 5 0 57 38 19
-1 -3 1 86 86 86
0 -3 1 86 86 86
1 -3 1 114 114 114
-2 -2 1 86 86 86
2 -2 1 114 114 114
-2 -1 1 114 114 114
2 -1 1 86 86 86
-2 0 1 114 114 114
2 0 1 86 86 86
-2 1 1 86 86 86
2 1 1 86 86 86
-1 2 1 114 114 114
0 2 1 86 86 86
1 2 1 114 114 114
6 2 1 80 58 33
5 3 1 114 114 114
6 5 1 80 58 33
0 -3 2 57 38 19
0 2 2 57 38 19
6 2 2 80 58 33
6 5 2 80 58 33
0 -8 3 37 79 142
1 -8 3 15 134 213
2 -8 3 37 79 142
3 -8 3 15 134 213
4 -8 3 15 134 213
5 -8 3 37 79 142
-8 -4 3 80 58 33
0 -3 3 57 38 19
6 1 3 134 60 157
7 1 3 206 96 200
0 2 3 57 38 19
6 2 3 57 38 19
-8 4 3 80 58 33
6 5 3 57 38 19
6 6 3 134 60 157
7 6 3 206 96 200
-6 7 3 136 65 46
-5 7 3 181 88 63
-4 7 3 136 65 46
-3 7 3 136 65 46
-2 7 3 136 65 46
-1 7 3 181 88 63
0 7 3 181 88 63
1 7 3 136 65 46
2 7 3 136 65 46
3 7 3 181 88 63
4 7 3 136 65 46
5 7 3 136 65 46
-7 -4 4 56 139 48
-7 -3 4 35 88 67
0 -3 4 57 38 19
-7 -2 4 56 139 48
-7 -1 4 35 88 67
-7 0 4 56 139 48
-7 1 4 35 88 67
-7 2 4 56 139 48
0 2 4 57 38 19
6 2 4 134 60 157
7 2 4 206 96 200
-7 3 4 35 88 67
6 3 4 206 96 200
7 3 4 134 60 157
-7 4 4 56 139 48
6 4 4 206 96 200
7 4 4 134 60 157
6 5 4 134 60 157
7 5 4 206 96 200
-8 -4 5 56 139 48
-8 -3 5 35 88 67
-2 -3 5 136 65 46
0 -3 5 57 38 19
2 -3 5 136 65 46
-8 -2 5 56 139 48
-2 -2 5 136 65 46
0 -2 5 57 38 19
2 -2 5 136 65 46
-8 -1 5 35 88 67
-2 -1 5 136 65 46
0 -1 5 57 38 19
2 -1 5 136 65 46
-8 0 5 56 139 48
-2 0 5 136 65 46
0 0 5 57 38 19
2 0 5 136 65 46
-8 1 5 35 88 67
-2 1 5 136 65 46
0 1 5 57 38 19
2 1 5 136 65 46
-8 2 5 56 139 48
-2 2 5 136 65 46
0 2 5 57 38 19
2 2 5 136 65 46
-8 3 5 35 88 67
-8 4 5 56 139 48
-1 -3 6 181 88 63
0 -3 6 136 65 46
1 -3 6 181 88 63
-1 -2 6 136 65 46
0 -2 6 136 65 46
1 -2 6 136 65 46
-1 -1 6 181 88 63
0 -1 6 136 65 46
1 -1 6 181 88 63
-1 0 6 181 88 63
0 0 6 136 65 46
1 0 6 181 88 63
-1 1 6 136 65 46
0 1 6 136 65 46
1 1 6 136 65 46
-1 2 6 136 65 46
0 2 6 136 65 46
1 2 6 136 65 46
0 -4 7 136 65 46
0 -3 7 136 65 46
0 -2 7 181 88 63
0 -1 7 136 65 46
0 0 7 136 65 46
0 1 7 181 88 63
0 2 7 136 65 46
0 3 7 181 88 63
