ply
format ascii 1.0
comment : MagicaVoxel @ Ephtracy
element vertex 1167
property float x
property float y
property float z
property uchar red
property uchar green
property uchar blue
end_header
-10 -21 0 80 58 33
-5 -21 0 80 58 33
-13 -20 0 80 58 33
-12 -20 0 198 147 70
-11 -20 0 198 147 70
-10 -20 0 198 147 70
-9 -20 0 198 147 70
-8 -20 0 80 58 33
-7 -20 0 80 58 33
-6 -20 0 198 147 70
-5 -20 0 198 147 70
-4 -20 0 198 147 70
-3 -20 0 198 147 70
-2 -20 0 80 58 33
-13 -19 0 198 147 70
-12 -19 0 151 112 58
-2 -19 0 151 112 58
-13 -18 0 151 112 58
-12 -18 0 151 112 58
-2 -18 0 151 112 58
-13 -17 0 151 112 58
-12 -17 0 198 147 70
-2 -17 0 151 112 58
-13 -16 0 136 65 46
-12 -16 0 80 58 33
-2 -16 0 136 65 46
-12 -15 0 80 58 33
-3 -15 0 80 58 33
-12 -14 0 80 58 33
-3 -14 0 80 58 33
-12 -13 0 80 58 33
-3 -13 0 80 58 33
-12 -12 0 80 58 33
-3 -12 0 80 58 33
-13 -11 0 136 65 46
-12 -11 0 80 58 33
-2 -11 0 136 65 46
-13 -10 0 151 112 58
-12 -10 0 151 112 58
-2 -10 0 198 147 70
-13 -9 0 151 112 58
-12 -9 0 198 147 70
-2 -9 0 198 147 70
-13 -8 0 151 112 58
-12 -8 0 198 147 70
-2 -8 0 151 112 58
-10 -21 1 80 58 33
-5 -21 1 80 58 33
-13 -20 1 80 58 33
-12 -20 1 198 147 70
-11 -20 1 198 147 70
-10 -20 1 198 147 70
-9 -20 1 198 147 70
-8 -20 1 80 58 33
-7 -20 1 80 58 33
-6 -20 1 198 147 70
-5 -20 1 198 147 70
-4 -20 1 198 147 70
-3 -20 1 198 147 70
-2 -20 1 80 58 33
-13 -19 1 151 112 58
-12 -19 1 151 112 58
-2 -19 1 198 147 70
-13 -18 1 198 147 70
-12 -18 1 198 147 70
-2 -18 1 198 147 70
-13 -17 1 198 147 70
-12 -17 1 198 147 70
-2 -17 1 151 112 58
-13 -16 1 136 65 46
-12 -16 1 80 58 33
-2 -16 1 136 65 46
-12 -15 1 80 58 33
-3 -15 1 80 58 33
-12 -14 1 80 58 33
-3 -14 1 80 58 33
-12 -13 1 80 58 33
-3 -13 1 80 58 33
-12 -12 1 80 58 33
-3 -12 1 80 58 33
-13 -11 1 136 65 46
-12 -11 1 80 58 33
-2 -11 1 136 65 46
-13 -10 1 198 147 70
-12 -10 1 198 147 70
-2 -10 1 198 147 70
-13 -9 1 151 112 58
-12 -9 1 198 147 70
-2 -9 1 198 147 70
-13 -8 1 151 112 58
-12 -8 1 198 147 70
-2 -8 1 198 147 70
-10 -21 2 80 58 33
-5 -21 2 80 58 33
-13 -20 2 80 58 33
-12 -20 2 198 147 70
-11 -20 2 198 147 70
-10 -20 2 198 147 70
-9 -20 2 198 147 70
-8 -20 2 80 58 33
-7 -20 2 80 58 33
-6 -20 2 198 147 70
-5 -20 2 198 147 70
-4 -20 2 198 147 70
-3 -20 2 198 147 70
-2 -20 2 80 58 33
-13 -19 2 198 147 70
-12 -19 2 198 147 70
-2 -19 2 198 147 70
-13 -18 2 151 112 58
-12 -18 2 198 147 70
-2 -18 2 198 147 70
-13 -17 2 198 147 70
-12 -17 2 198 147 70
-2 -17 2 198 147 70
-13 -16 2 136 65 46
-12 -16 2 80 58 33
-2 -16 2 136 65 46
-12 -15 2 80 58 33
-3 -15 2 80 58 33
-12 -14 2 80 58 33
-3 -14 2 80 58 33
-12 -13 2 80 58 33
-3 -13 2 80 58 33
-12 -12 2 80 58 33
-3 -12 2 80 58 33
-13 -11 2 136 65 46
-12 -11 2 80 58 33
-2 -11 2 136 65 46
-13 -10 2 198 147 70
-12 -10 2 198 147 70
-2 -10 2 198 147 70
-13 -9 2 151 112 58
-12 -9 2 198 147 70
-2 -9 2 198 147 70
-13 -8 2 198 147 70
-12 -8 2 198 147 70
-2 -8 2 198 147 70
-10 -21 3 80 58 33
-5 -21 3 80 58 33
-13 -20 3 80 58 33
-12 -20 3 80 58 33
-11 -20 3 80 58 33
-10 -20 3 80 58 33
-9 -20 3 80 58 33
-8 -20 3 80 58 33
-7 -20 3 80 58 33
-6 -20 3 80 58 33
-5 -20 3 80 58 33
-4 -20 3 80 58 33
-3 -20 3 80 58 33
-2 -20 3 80 58 33
-13 -19 3 80 58 33
-12 -19 3 198 147 70
-2 -19 3 80 58 33
-13 -18 3 80 58 33
-12 -18 3 151 112 58
-2 -18 3 151 112 58
-13 -17 3 80 58 33
-12 -17 3 198 147 70
-2 -17 3 198 147 70
-13 -16 3 136 65 46
-12 -16 3 80 58 33
-2 -16 3 136 65 46
-12 -15 3 80 58 33
-3 -15 3 80 58 33
-12 -14 3 80 58 33
-3 -14 3 80 58 33
-12 -13 3 80 58 33
-3 -13 3 80 58 33
-12 -12 3 80 58 33
-3 -12 3 80 58 33
-13 -11 3 136 65 46
-12 -11 3 80 58 33
-2 -11 3 136 65 46
-13 -10 3 80 58 33
-12 -10 3 151 112 58
-2 -10 3 198 147 70
-13 -9 3 80 58 33
-12 -9 3 198 147 70
-2 -9 3 198 147 70
-13 -8 3 80 58 33
-12 -8 3 198 147 70
-2 -8 3 198 147 70
-10 -21 4 80 58 33
-5 -21 4 80 58 33
-13 -20 4 80 58 33
-12 -20 4 198 147 70
-11 -20 4 198 147 70
-10 -20 4 198 147 70
-9 -20 4 198 147 70
-8 -20 4 80 58 33
-7 -20 4 80 58 33
-6 -20 4 198 147 70
-5 -20 4 198 147 70
-4 -20 4 198 147 70
-3 -20 4 198 147 70
-2 -20 4 80 58 33
-13 -19 4 198 147 70
-12 -19 4 198 147 70
-2 -19 4 198 147 70
-13 -18 4 151 112 58
-12 -18 4 198 147 70
-2 -18 4 198 147 70
-13 -17 4 198 147 70
-12 -17 4 151 112 58
-2 -17 4 198 147 70
-13 -16 4 136 65 46
-12 -16 4 80 58 33
-2 -16 4 136 65 46
-12 -15 4 80 58 33
-3 -15 4 80 58 33
-12 -14 4 80 58 33
-3 -14 4 80 58 33
-12 -13 4 80 58 33
-3 -13 4 80 58 33
-12 -12 4 80 58 33
-3 -12 4 80 58 33
-13 -11 4 136 65 46
-12 -11 4 80 58 33
-2 -11 4 136 65 46
-13 -10 4 198 147 70
-12 -10 4 198 147 70
-2 -10 4 198 147 70
-13 -9 4 198 147 70
-12 -9 4 198 147 70
-2 -9 4 198 147 70
-13 -8 4 198 147 70
-12 -8 4 198 147 70
-2 -8 4 151 112 58
-11 -21 5 136 65 46
-10 -21 5 80 58 33
-9 -21 5 80 58 33
-8 -21 5 80 58 33
-7 -21 5 80 58 33
-6 -21 5 80 58 33
-5 -21 5 80 58 33
-4 -21 5 136 65 46
-13 -20 5 80 58 33
-12 -20 5 198 147 70
-11 -20 5 198 147 70
-10 -20 5 198 147 70
-9 -20 5 80 58 33
-8 -20 5 80 58 33
-7 -20 5 80 58 33
-6 -20 5 80 58 33
-5 -20 5 198 147 70
-4 -20 5 198 147 70
-3 -20 5 198 147 70
-2 -20 5 80 58 33
-13 -19 5 198 147 70
-12 -19 5 198 147 70
-2 -19 5 198 147 70
-13 -18 5 151 112 58
-12 -18 5 151 112 58
-2 -18 5 198 147 70
-13 -17 5 151 112 58
-12 -17 5 198 147 70
-2 -17 5 198 147 70
-13 -16 5 136 65 46
-12 -16 5 80 58 33
-2 -16 5 136 65 46
-12 -15 5 80 58 33
-3 -15 5 80 58 33
-12 -14 5 80 58 33
-3 -14 5 80 58 33
-12 -13 5 80 58 33
-3 -13 5 80 58 33
-12 -12 5 80 58 33
-3 -12 5 80 58 33
-13 -11 5 136 65 46
-12 -11 5 80 58 33
-2 -11 5 136 65 46
-13 -10 5 198 147 70
-12 -10 5 198 147 70
-2 -10 5 198 147 70
-13 -9 5 151 112 58
-12 -9 5 198 147 70
-2 -9 5 198 147 70
-13 -8 5 198 147 70
-12 -8 5 198 147 70
-2 -8 5 151 112 58
-10 -21 6 136 65 46
-5 -21 6 181 88 63
-13 -20 6 80 58 33
-12 -20 6 198 147 70
-11 -20 6 198 147 70
-10 -20 6 198 147 70
-9 -20 6 80 58 33
-8 -20 6 80 58 33
-7 -20 6 80 58 33
-6 -20 6 80 58 33
-5 -20 6 198 147 70
-4 -20 6 198 147 70
-3 -20 6 198 147 70
-2 -20 6 80 58 33
-13 -19 6 198 147 70
-12 -19 6 151 112 58
-2 -19 6 198 147 70
-13 -18 6 198 147 70
-12 -18 6 198 147 70
-2 -18 6 151 112 58
-13 -17 6 198 147 70
-12 -17 6 198 147 70
-2 -17 6 198 147 70
-13 -16 6 198 147 70
-12 -16 6 198 147 70
-2 -16 6 198 147 70
-13 -15 6 136 65 46
-12 -15 6 80 58 33
-2 -15 6 136 65 46
-13 -14 6 136 65 46
-12 -14 6 80 58 33
-2 -14 6 136 65 46
-13 -13 6 136 65 46
-12 -13 6 80 58 33
-2 -13 6 136 65 46
-13 -12 6 136 65 46
-12 -12 6 80 58 33
-2 -12 6 136 65 46
-13 -11 6 198 147 70
-12 -11 6 198 147 70
-2 -11 6 198 147 70
-13 -10 6 151 112 58
-12 -10 6 198 147 70
-2 -10 6 198 147 70
-13 -9 6 198 147 70
-12 -9 6 198 147 70
-2 -9 6 198 147 70
-13 -8 6 151 112 58
-12 -8 6 198 147 70
-2 -8 6 198 147 70
-9 -21 7 136 65 46
-6 -21 7 181 88 63
-13 -20 7 80 58 33
-12 -20 7 198 147 70
-11 -20 7 198 147 70
-10 -20 7 198 147 70
-9 -20 7 198 147 70
-8 -20 7 80 58 33
-7 -20 7 80 58 33
-6 -20 7 198 147 70
-5 -20 7 198 147 70
-4 -20 7 198 147 70
-3 -20 7 198 147 70
-2 -20 7 80 58 33
-13 -19 7 198 147 70
-12 -19 7 198 147 70
-2 -19 7 198 147 70
-13 -18 7 198 147 70
-12 -18 7 198 147 70
-2 -18 7 198 147 70
-13 -17 7 198 147 70
-12 -17 7 198 147 70
-2 -17 7 198 147 70
-13 -16 7 198 147 70
-12 -16 7 198 147 70
-2 -16 7 198 147 70
-13 -15 7 198 147 70
-12 -15 7 151 112 58
-2 -15 7 198 147 70
-13 -14 7 136 65 46
-12 -14 7 198 147 70
-2 -14 7 198 147 70
-13 -13 7 136 65 46
-12 -13 7 151 112 58
-2 -13 7 198 147 70
-13 -12 7 198 147 70
-12 -12 7 198 147 70
-2 -12 7 198 147 70
-13 -11 7 198 147 70
-12 -11 7 198 147 70
-2 -11 7 198 147 70
-13 -10 7 151 112 58
-12 -10 7 198 147 70
-2 -10 7 198 147 70
-13 -9 7 198 147 70
-12 -9 7 198 147 70
-2 -9 7 151 112 58
-13 -8 7 198 147 70
-12 -8 7 198 147 70
-2 -8 7 198 147 70
-13 -21 8 57 38 19
-8 -21 8 181 88 63
-7 -21 8 181 88 63
-2 -21 8 80 58 33
-13 -20 8 57 38 19
-12 -20 8 80 58 33
-11 -20 8 198 147 70
-10 -20 8 198 147 70
-9 -20 8 198 147 70
-8 -20 8 198 147 70
-7 -20 8 198 147 70
-6 -20 8 198 147 70
-5 -20 8 198 147 70
-4 -20 8 198 147 70
-3 -20 8 198 147 70
-2 -20 8 80 58 33
-13 -19 8 80 58 33
-12 -19 8 80 58 33
-2 -19 8 57 38 19
-13 -18 8 80 58 33
-12 -18 8 80 58 33
-2 -18 8 80 58 33
-13 -17 8 80 58 33
-12 -17 8 80 58 33
-2 -17 8 80 58 33
-13 -16 8 57 38 19
-12 -16 8 80 58 33
-2 -16 8 57 38 19
-13 -15 8 57 38 19
-12 -15 8 80 58 33
-2 -15 8 80 58 33
-13 -14 8 57 38 19
-12 -14 8 80 58 33
-2 -14 8 57 38 19
-13 -13 8 80 58 33
-12 -13 8 80 58 33
-2 -13 8 80 58 33
-13 -12 8 80 58 33
-12 -12 8 80 58 33
-2 -12 8 57 38 19
-13 -11 8 57 38 19
-12 -11 8 80 58 33
-2 -11 8 57 38 19
-13 -10 8 80 58 33
-12 -10 8 80 58 33
-2 -10 8 80 58 33
-13 -9 8 57 38 19
-12 -9 8 80 58 33
-2 -9 8 57 38 19
-13 -8 8 57 38 19
-12 -8 8 80 58 33
-2 -8 8 80 58 33
-1 -8 8 57 38 19
-12 -21 9 57 38 19
-3 -21 9 57 38 19
-12 -20 9 57 38 19
-11 -20 9 198 147 70
-10 -20 9 198 147 70
-9 -20 9 198 147 70
-8 -20 9 198 147 70
-7 -20 9 198 147 70
-6 -20 9 198 147 70
-5 -20 9 198 147 70
-4 -20 9 198 147 70
-3 -20 9 57 38 19
-12 -19 9 80 58 33
-11 -19 9 80 58 33
-10 -19 9 80 58 33
-9 -19 9 80 58 33
-8 -19 9 80 58 33
-7 -19 9 80 58 33
-6 -19 9 80 58 33
-5 -19 9 80 58 33
-4 -19 9 80 58 33
-3 -19 9 57 38 19
-12 -18 9 57 38 19
-11 -18 9 80 58 33
-10 -18 9 80 58 33
-9 -18 9 80 58 33
-8 -18 9 80 58 33
-7 -18 9 80 58 33
-6 -18 9 80 58 33
-5 -18 9 80 58 33
-4 -18 9 80 58 33
-3 -18 9 57 38 19
-12 -17 9 57 38 19
-11 -17 9 80 58 33
-3 -17 9 80 58 33
-12 -16 9 57 38 19
-11 -16 9 80 58 33
-3 -16 9 57 38 19
-12 -15 9 80 58 33
-11 -15 9 80 58 33
-3 -15 9 57 38 19
-12 -14 9 57 38 19
-11 -14 9 80 58 33
-3 -14 9 57 38 19
-12 -13 9 57 38 19
-11 -13 9 80 58 33
-3 -13 9 57 38 19
-12 -12 9 57 38 19
-11 -12 9 80 58 33
-3 -12 9 57 38 19
-12 -11 9 57 38 19
-11 -11 9 80 58 33
-3 -11 9 57 38 19
-12 -10 9 57 38 19
-11 -10 9 80 58 33
-3 -10 9 80 58 33
-12 -9 9 57 38 19
-11 -9 9 80 58 33
-3 -9 9 80 58 33
-12 -8 9 57 38 19
-11 -8 9 80 58 33
-3 -8 9 57 38 19
-11 -21 10 80 58 33
-4 -21 10 57 38 19
-11 -20 10 80 58 33
-10 -20 10 80 58 33
-9 -20 10 80 58 33
-8 -20 10 80 58 33
-7 -20 10 80 58 33
-6 -20 10 80 58 33
-5 -20 10 80 58 33
-4 -20 10 80 58 33
-11 -19 10 57 38 19
-10 -19 10 80 58 33
-9 -19 10 80 58 33
-8 -19 10 80 58 33
-7 -19 10 80 58 33
-6 -19 10 80 58 33
-5 -19 10 80 58 33
-4 -19 10 80 58 33
-11 -18 10 80 58 33
-10 -18 10 80 58 33
-9 -18 10 80 58 33
-8 -18 10 80 58 33
-7 -18 10 80 58 33
-6 -18 10 80 58 33
-5 -18 10 80 58 33
-4 -18 10 80 58 33
-11 -17 10 80 58 33
-10 -17 10 80 58 33
-9 -17 10 80 58 33
-8 -17 10 80 58 33
-7 -17 10 80 58 33
-6 -17 10 80 58 33
-5 -17 10 80 58 33
-4 -17 10 57 38 19
-11 -16 10 57 38 19
-10 -16 10 80 58 33
-9 -16 10 80 58 33
-4 -16 10 80 58 33
-11 -15 10 80 58 33
-10 -15 10 80 58 33
-4 -15 10 80 58 33
-11 -14 10 57 38 19
-10 -14 10 80 58 33
-4 -14 10 57 38 19
-11 -13 10 80 58 33
-10 -13 10 80 58 33
-4 -13 10 57 38 19
-11 -12 10 57 38 19
-10 -12 10 80 58 33
-4 -12 10 80 58 33
-11 -11 10 80 58 33
-10 -11 10 80 58 33
-9 -11 10 80 58 33
-4 -11 10 57 38 19
-11 -10 10 80 58 33
-10 -10 10 80 58 33
-9 -10 10 80 58 33
-4 -10 10 80 58 33
-11 -9 10 57 38 19
-10 -9 10 80 58 33
-9 -9 10 80 58 33
-4 -9 10 57 38 19
-11 -8 10 57 38 19
-10 -8 10 80 58 33
-9 -8 10 80 58 33
-4 -8 10 80 58 33
-11 -21 11 57 38 19
-8 -21 11 80 58 33
-7 -21 11 80 58 33
-4 -21 11 57 38 19
-11 -20 11 57 38 19
-10 -20 11 198 147 70
-9 -20 11 198 147 70
-8 -20 11 198 147 70
-7 -20 11 198 147 70
-6 -20 11 198 147 70
-5 -20 11 57 38 19
-4 -20 11 57 38 19
-11 -19 11 57 38 19
-10 -19 11 80 58 33
-9 -19 11 80 58 33
-8 -19 11 80 58 33
-7 -19 11 80 58 33
-6 -19 11 80 58 33
-5 -19 11 57 38 19
-4 -19 11 57 38 19
-11 -18 11 57 38 19
-10 -18 11 80 58 33
-9 -18 11 80 58 33
-8 -18 11 80 58 33
-7 -18 11 80 58 33
-6 -18 11 80 58 33
-5 -18 11 80 58 33
-4 -18 11 57 38 19
-11 -17 11 80 58 33
-10 -17 11 80 58 33
-9 -17 11 80 58 33
-8 -17 11 80 58 33
-7 -17 11 80 58 33
-6 -17 11 80 58 33
-5 -17 11 80 58 33
-4 -17 11 80 58 33
-11 -16 11 57 38 19
-10 -16 11 80 58 33
-9 -16 11 80 58 33
-8 -16 11 80 58 33
-7 -16 11 80 58 33
-6 -16 11 80 58 33
-5 -16 11 80 58 33
-4 -16 11 57 38 19
-11 -15 11 80 58 33
-10 -15 11 80 58 33
-5 -15 11 80 58 33
-4 -15 11 57 38 19
-11 -14 11 57 38 19
-10 -14 11 80 58 33
-5 -14 11 80 58 33
-4 -14 11 80 58 33
-11 -13 11 57 38 19
-10 -13 11 80 58 33
-5 -13 11 80 58 33
-4 -13 11 80 58 33
-11 -12 11 57 38 19
-10 -12 11 80 58 33
-5 -12 11 80 58 33
-4 -12 11 57 38 19
-11 -11 11 57 38 19
-10 -11 11 80 58 33
-9 -11 11 80 58 33
-8 -11 11 80 58 33
-5 -11 11 80 58 33
-4 -11 11 80 58 33
-11 -10 11 80 58 33
-10 -10 11 80 58 33
-9 -10 11 80 58 33
-8 -10 11 80 58 33
-5 -10 11 80 58 33
-4 -10 11 57 38 19
-11 -9 11 80 58 33
-10 -9 11 80 58 33
-9 -9 11 80 58 33
-8 -9 11 80 58 33
-5 -9 11 80 58 33
-4 -9 11 57 38 19
-11 -8 11 57 38 19
-10 -8 11 80 58 33
-9 -8 11 80 58 33
-8 -8 11 80 58 33
-5 -8 11 80 58 33
-4 -8 11 57 38 19
-10 -21 12 80 58 33
-8 -21 12 80 58 33
-7 -21 12 80 58 33
-5 -21 12 57 38 19
-10 -20 12 80 58 33
-9 -20 12 198 147 70
-8 -20 12 198 147 70
-7 -20 12 198 147 70
-6 -20 12 198 147 70
-5 -20 12 57 38 19
-10 -19 12 80 58 33
-9 -19 12 80 58 33
-8 -19 12 80 58 33
-7 -19 12 80 58 33
-6 -19 12 80 58 33
-5 -19 12 57 38 19
-10 -18 12 57 38 19
-9 -18 12 80 58 33
-8 -18 12 80 58 33
-7 -18 12 80 58 33
-6 -18 12 80 58 33
-5 -18 12 80 58 33
-10 -17 12 80 58 33
-9 -17 12 80 58 33
-8 -17 12 80 58 33
-7 -17 12 80 58 33
-6 -17 12 80 58 33
-5 -17 12 57 38 19
-10 -16 12 80 58 33
-9 -16 12 80 58 33
-8 -16 12 80 58 33
-7 -16 12 80 58 33
-6 -16 12 80 58 33
-5 -16 12 80 58 33
-10 -15 12 80 58 33
-5 -15 12 80 58 33
-11 -14 12 57 38 19
-10 -14 12 80 58 33
-5 -14 12 80 58 33
-4 -14 12 198 147 70
-11 -13 12 57 38 19
-10 -13 12 80 58 33
-5 -13 12 80 58 33
-4 -13 12 151 112 58
-10 -12 12 80 58 33
-5 -12 12 80 58 33
-10 -11 12 80 58 33
-9 -11 12 80 58 33
-8 -11 12 80 58 33
-7 -11 12 80 58 33
-6 -11 12 80 58 33
-5 -11 12 57 38 19
-10 -10 12 57 38 19
-9 -10 12 80 58 33
-8 -10 12 80 58 33
-7 -10 12 80 58 33
-6 -10 12 80 58 33
-5 -10 12 57 38 19
-10 -9 12 57 38 19
-9 -9 12 80 58 33
-8 -9 12 80 58 33
-7 -9 12 80 58 33
-6 -9 12 80 58 33
-5 -9 12 80 58 33
-10 -8 12 57 38 19
-9 -8 12 80 58 33
-8 -8 12 80 58 33
-7 -8 12 80 58 33
-6 -8 12 80 58 33
-5 -8 12 80 58 33
-10 -21 13 80 58 33
-5 -21 13 57 38 19
-10 -20 13 57 38 19
-9 -20 13 198 147 70
-8 -20 13 198 147 70
-7 -20 13 198 147 70
-6 -20 13 198 147 70
-5 -20 13 80 58 33
-10 -19 13 80 58 33
-9 -19 13 80 58 33
-8 -19 13 80 58 33
-7 -19 13 80 58 33
-6 -19 13 80 58 33
-5 -19 13 57 38 19
-10 -18 13 80 58 33
-9 -18 13 80 58 33
-8 -18 13 80 58 33
-7 -18 13 80 58 33
-6 -18 13 80 58 33
-5 -18 13 80 58 33
-10 -17 13 57 38 19
-9 -17 13 80 58 33
-8 -17 13 80 58 33
-7 -17 13 80 58 33
-6 -17 13 80 58 33
-5 -17 13 80 58 33
-10 -16 13 80 58 33
-9 -16 13 80 58 33
-8 -16 13 80 58 33
-7 -16 13 80 58 33
-6 -16 13 80 58 33
-5 -16 13 57 38 19
-10 -15 13 80 58 33
-5 -15 13 80 58 33
-11 -14 13 57 38 19
-10 -14 13 80 58 33
-5 -14 13 80 58 33
-4 -14 13 151 112 58
-11 -13 13 80 58 33
-10 -13 13 80 58 33
-5 -13 13 80 58 33
-4 -13 13 151 112 58
-10 -12 13 80 58 33
-5 -12 13 80 58 33
-10 -11 13 57 38 19
-9 -11 13 80 58 33
-8 -11 13 80 58 33
-7 -11 13 80 58 33
-6 -11 13 80 58 33
-5 -11 13 80 58 33
-10 -10 13 57 38 19
-9 -10 13 80 58 33
-8 -10 13 80 58 33
-7 -10 13 80 58 33
-6 -10 13 80 58 33
-5 -10 13 80 58 33
-10 -9 13 57 38 19
-9 -9 13 80 58 33
-8 -9 13 80 58 33
-7 -9 13 80 58 33
-6 -9 13 80 58 33
-5 -9 13 57 38 19
-10 -8 13 57 38 19
-9 -8 13 80 58 33
-8 -8 13 80 58 33
-7 -8 13 80 58 33
-6 -8 13 80 58 33
-5 -8 13 57 38 19
-9 -21 14 80 58 33
-6 -21 14 80 58 33
-9 -20 14 80 58 33
-8 -20 14 198 147 70
-7 -20 14 198 147 70
-6 -20 14 80 58 33
-9 -19 14 80 58 33
-8 -19 14 80 58 33
-7 -19 14 80 58 33
-6 -19 14 80 58 33
-9 -18 14 80 58 33
-8 -18 14 80 58 33
-7 -18 14 80 58 33
-6 -18 14 57 38 19
-9 -17 14 80 58 33
-8 -17 14 80 58 33
-7 -17 14 80 58 33
-6 -17 14 80 58 33
-9 -16 14 80 58 33
-8 -16 14 80 58 33
-7 -16 14 80 58 33
-6 -16 14 80 58 33
-10 -15 14 80 58 33
-5 -15 14 198 147 70
-11 -14 14 80 58 33
-10 -14 14 80 58 33
-5 -14 14 80 58 33
-4 -14 14 151 112 58
-11 -13 14 80 58 33
-10 -13 14 80 58 33
-5 -13 14 80 58 33
-4 -13 14 198 147 70
-10 -12 14 80 58 33
-5 -12 14 151 112 58
-9 -11 14 80 58 33
-8 -11 14 80 58 33
-7 -11 14 80 58 33
-6 -11 14 80 58 33
-9 -10 14 80 58 33
-8 -10 14 80 58 33
-7 -10 14 80 58 33
-6 -10 14 80 58 33
-9 -9 14 80 58 33
-8 -9 14 80 58 33
-7 -9 14 80 58 33
-6 -9 14 57 38 19
-9 -8 14 80 58 33
-8 -8 14 80 58 33
-7 -8 14 80 58 33
-6 -8 14 57 38 19
-9 -21 15 80 58 33
-6 -21 15 80 58 33
-9 -20 15 57 38 19
-8 -20 15 198 147 70
-7 -20 15 198 147 70
-6 -20 15 80 58 33
-9 -19 15 80 58 33
-8 -19 15 80 58 33
-7 -19 15 80 58 33
-6 -19 15 57 38 19
-9 -18 15 80 58 33
-8 -18 15 80 58 33
-7 -18 15 80 58 33
-6 -18 15 80 58 33
-9 -17 15 57 38 19
-8 -17 15 80 58 33
-7 -17 15 80 58 33
-6 -17 15 80 58 33
-9 -16 15 80 58 33
-8 -16 15 80 58 33
-7 -16 15 80 58 33
-6 -16 15 80 58 33
-10 -15 15 198 147 70
-5 -15 15 151 112 58
-11 -14 15 151 112 58
-10 -14 15 198 147 70
-5 -14 15 80 58 33
-4 -14 15 198 147 70
-11 -13 15 198 147 70
-10 -13 15 198 147 70
-5 -13 15 80 58 33
-4 -13 15 151 112 58
-10 -12 15 151 112 58
-5 -12 15 151 112 58
-9 -11 15 80 58 33
-8 -11 15 80 58 33
-7 -11 15 80 58 33
-6 -11 15 80 58 33
-9 -10 15 80 58 33
-8 -10 15 80 58 33
-7 -10 15 57 38 19
-6 -10 15 57 38 19
-9 -9 15 57 38 19
-8 -9 15 80 58 33
-7 -9 15 80 58 33
-6 -9 15 80 58 33
-9 -8 15 57 38 19
-8 -8 15 80 58 33
-7 -8 15 80 58 33
-6 -8 15 80 58 33
-8 -21 16 80 58 33
-7 -21 16 80 58 33
-8 -20 16 80 58 33
-7 -20 16 80 58 33
-8 -19 16 80 58 33
-7 -19 16 80 58 33
-8 -18 16 80 58 33
-7 -18 16 80 58 33
-8 -17 16 80 58 33
-7 -17 16 80 58 33
-9 -16 16 198 147 70
-8 -16 16 80 58 33
-7 -16 16 80 58 33
-6 -16 16 198 147 70
-10 -15 16 151 112 58
-5 -15 16 198 147 70
-11 -14 16 151 112 58
-10 -14 16 198 147 70
-5 -14 16 198 147 70
-4 -14 16 198 147 70
-11 -13 16 151 112 58
-10 -13 16 198 147 70
-5 -13 16 198 147 70
-4 -13 16 198 147 70
-10 -12 16 198 147 70
-5 -12 16 151 112 58
-9 -11 16 198 147 70
-8 -11 16 80 58 33
-7 -11 16 80 58 33
-6 -11 16 198 147 70
-8 -10 16 80 58 33
-7 -10 16 57 38 19
-8 -9 16 80 58 33
-7 -9 16 80 58 33
-8 -8 16 80 58 33
-7 -8 16 57 38 19
-8 -21 17 57 38 19
-7 -21 17 80 58 33
-8 -20 17 80 58 33
-7 -20 17 80 58 33
-8 -19 17 57 38 19
-7 -19 17 57 38 19
-8 -18 17 57 38 19
-7 -18 17 80 58 33
-8 -17 17 80 58 33
-7 -17 17 80 58 33
-9 -16 17 198 147 70
-8 -16 17 80 58 33
-7 -16 17 80 58 33
-6 -16 17 198 147 70
-10 -15 17 151 112 58
-5 -15 17 151 112 58
-11 -14 17 151 112 58
-10 -14 17 198 147 70
-5 -14 17 198 147 70
-4 -14 17 198 147 70
-11 -13 17 198 147 70
-10 -13 17 198 147 70
-5 -13 17 198 147 70
-4 -13 17 151 112 58
-10 -12 17 198 147 70
-5 -12 17 151 112 58
-9 -11 17 151 112 58
-8 -11 17 80 58 33
-7 -11 17 80 58 33
-6 -11 17 198 147 70
-8 -10 17 80 58 33
-7 -10 17 80 58 33
-8 -9 17 80 58 33
-7 -9 17 80 58 33
-8 -8 17 57 38 19
-7 -8 17 57 38 19
-8 -17 18 80 58 33
-7 -17 18 80 58 33
-9 -16 18 198 147 70
-8 -16 18 80 58 33
-7 -16 18 80 58 33
-6 -16 18 198 147 70
-10 -15 18 151 112 58
-5 -15 18 198 147 70
-11 -14 18 57 38 19
-10 -14 18 198 147 70
-5 -14 18 198 147 70
-4 -14 18 80 58 33
-11 -13 18 57 38 19
-10 -13 18 198 147 70
-5 -13 18 198 147 70
-4 -13 18 80 58 33
-10 -12 18 198 147 70
-5 -12 18 151 112 58
-9 -11 18 151 112 58
-8 -11 18 198 147 70
-7 -11 18 198 147 70
-6 -11 18 198 147 70
-8 -10 18 57 38 19
-7 -10 18 57 38 19
-8 -17 19 57 38 19
-7 -17 19 57 38 19
-9 -16 19 198 147 70
-8 -16 19 80 58 33
-7 -16 19 80 58 33
-6 -16 19 198 147 70
-10 -15 19 151 112 58
-5 -15 19 198 147 70
-11 -14 19 57 38 19
-10 -14 19 198 147 70
-5 -14 19 198 147 70
-4 -14 19 80 58 33
-11 -13 19 57 38 19
-10 -13 19 198 147 70
-5 -13 19 198 147 70
-4 -13 19 80 58 33
-10 -12 19 198 147 70
-5 -12 19 198 147 70
-9 -11 19 198 147 70
-8 -11 19 198 147 70
-7 -11 19 198 147 70
-6 -11 19 151 112 58
-8 -10 19 57 38 19
-7 -10 19 80 58 33
-8 -17 20 80 58 33
-7 -17 20 80 58 33
-9 -16 20 198 147 70
-8 -16 20 80 58 33
-7 -16 20 80 58 33
-6 -16 20 198 147 70
-10 -15 20 198 147 70
-5 -15 20 198 147 70
-11 -14 20 198 147 70
-10 -14 20 198 147 70
-5 -14 20 198 147 70
-4 -14 20 198 147 70
-11 -13 20 198 147 70
-10 -13 20 198 147 70
-5 -13 20 198 147 70
-4 -13 20 198 147 70
-10 -12 20 198 147 70
-5 -12 20 198 147 70
-9 -11 20 198 147 70
-8 -11 20 198 147 70
-7 -11 20 198 147 70
-6 -11 20 198 147 70
-8 -10 20 57 38 19
-7 -10 20 80 58 33
-8 -17 21 57 38 19
-7 -17 21 57 38 19
-9 -16 21 57 38 19
-8 -16 21 80 58 33
-7 -16 21 80 58 33
-6 -16 21 80 58 33
-10 -15 21 57 38 19
-5 -15 21 57 38 19
-11 -14 21 57 38 19
-10 -14 21 80 58 33
-5 -14 21 80 58 33
-4 -14 21 80 58 33
-11 -13 21 57 38 19
-10 -13 21 80 58 33
-5 -13 21 80 58 33
-4 -13 21 80 58 33
-10 -12 21 80 58 33
-5 -12 21 57 38 19
-9 -11 21 80 58 33
-8 -11 21 198 147 70
-7 -11 21 198 147 70
-6 -11 21 80 58 33
-8 -10 21 80 58 33
-7 -10 21 57 38 19
-8 -16 22 151 112 58
-7 -16 22 151 112 58
-9 -15 22 151 112 58
-8 -15 22 151 112 58
-7 -15 22 151 112 58
-6 -15 22 151 112 58
-10 -14 22 151 112 58
-9 -14 22 198 147 70
-8 -14 22 198 147 70
-7 -14 22 198 147 70
-6 -14 22 198 147 70
-5 -14 22 198 147 70
-10 -13 22 198 147 70
-9 -13 22 198 147 70
-8 -13 22 198 147 70
-7 -13 22 198 147 70
-6 -13 22 198 147 70
-5 -13 22 198 147 70
-9 -12 22 198 147 70
-8 -12 22 198 147 70
-7 -12 22 198 147 70
-6 -12 22 198 147 70
-8 -11 22 80 58 33
-7 -11 22 198 147 70
-8 -17 23 181 88 63
-7 -17 23 136 65 46
-6 -17 23 136 65 46
-9 -16 23 136 65 46
-8 -16 23 136 65 46
-7 -16 23 136 65 46
-6 -16 23 136 65 46
-5 -16 23 136 65 46
-10 -15 23 181 88 63
-9 -15 23 136 65 46
-8 -15 23 136 65 46
-7 -15 23 136 65 46
-6 -15 23 136 65 46
-5 -15 23 181 88 63
-4 -15 23 136 65 46
-11 -14 23 136 65 46
-10 -14 23 136 65 46
-9 -14 23 136 65 46
-8 -14 23 136 65 46
-7 -14 23 136 65 46
-6 -14 23 136 65 46
-5 -14 23 136 65 46
-4 -14 23 136 65 46
-11 -13 23 136 65 46
-10 -13 23 136 65 46
-9 -13 23 136 65 46
-8 -13 23 136 65 46
-7 -13 23 136 65 46
-6 -13 23 136 65 46
-5 -13 23 136 65 46
-4 -13 23 181 88 63
-10 -12 23 136 65 46
-9 -12 23 136 65 46
-8 -12 23 136 65 46
-7 -12 23 136 65 46
-6 -12 23 136 65 46
-5 -12 23 136 65 46
-4 -12 23 136 65 46
-9 -11 23 136 65 46
-8 -11 23 136 65 46
-7 -11 23 136 65 46
-6 -11 23 136 65 46
-5 -11 23 136 65 46
-8 -10 23 136 65 46
-7 -10 23 136 65 46
-6 -10 23 181 88 63
-8 -16 24 136 65 46
-7 -16 24 181 88 63
-9 -15 24 136 65 46
-8 -15 24 136 65 46
-7 -15 24 136 65 46
-6 -15 24 181 88 63
-10 -14 24 136 65 46
-9 -14 24 136 65 46
-8 -14 24 136 65 46
-7 -14 24 136 65 46
-6 -14 24 136 65 46
-5 -14 24 136 65 46
-10 -13 24 136 65 46
-9 -13 24 136 65 46
-8 -13 24 136 65 46
-7 -13 24 136 65 46
-6 -13 24 136 65 46
-5 -13 24 136 65 46
-9 -12 24 181 88 63
-8 -12 24 136 65 46
-7 -12 24 136 65 46
-6 -12 24 181 88 63
-8 -11 24 181 88 63
-7 -11 24 136 65 46
-8 -15 25 136 65 46
-7 -15 25 181 88 63
-9 -14 25 181 88 63
-8 -14 25 136 65 46
-7 -14 25 136 65 46
-6 -14 25 181 88 63
-9 -13 25 136 65 46
-8 -13 25 136 65 46
-7 -13 25 136 65 46
-6 -13 25 181 88 63
-8 -12 25 181 88 63
-7 -12 25 181 88 63
-8 -14 26 181 88 63
-7 -14 26 136 65 46
-8 -13 26 181 88 63
-7 -13 26 136 65 46
-8 -14 27 136 65 46
-7 -14 27 181 88 63
-8 -13 27 181 88 63
-7 -13 27 181 88 63
