ply
format ascii 1.0
comment : MagicaVoxel @ Ephtracy
element vertex 1404
property float x
property float y
property float z
property uchar red
property uchar green
property uchar blue
end_header
-13 -13 0 151 112 58
-2 -13 0 198 147 70
-13 -12 0 151 112 58
-2 -12 0 198 147 70
0 -12 0 57 38 19
1 -12 0 57 38 19
-14 -11 0 151 112 58
-13 -11 0 198 147 70
-2 -11 0 198 147 70
-2 -10 0 198 147 70
-1 -10 0 198 147 70
0 -10 0 198 147 70
1 -10 0 80 58 33
-2 -1 0 198 147 70
-1 -1 0 198 147 70
0 -1 0 198 147 70
1 -1 0 80 58 33
-14 0 0 151 112 58
-13 0 0 198 147 70
-2 0 0 198 147 70
-13 1 0 151 112 58
-2 1 0 198 147 70
0 1 0 57 38 19
1 1 0 57 38 19
-13 2 0 151 112 58
-2 2 0 198 147 70
-13 -13 1 151 112 58
-2 -13 1 198 147 70
-13 -12 1 198 147 70
-2 -12 1 198 147 70
0 -12 1 57 38 19
1 -12 1 57 38 19
-14 -11 1 151 112 58
-13 -11 1 198 147 70
-2 -11 1 198 147 70
-2 -10 1 198 147 70
-1 -9 1 198 147 70
0 -9 1 198 147 70
1 -9 1 151 112 58
-1 -2 1 198 147 70
0 -2 1 198 147 70
1 -2 1 151 112 58
-2 -1 1 198 147 70
-14 0 1 151 112 58
-13 0 1 198 147 70
-2 0 1 198 147 70
-13 1 1 198 147 70
-2 1 1 198 147 70
0 1 1 57 38 19
1 1 1 57 38 19
-13 2 1 151 112 58
-2 2 1 198 147 70
-13 -13 2 151 112 58
-2 -13 2 198 147 70
-13 -12 2 198 147 70
-2 -12 2 198 147 70
0 -12 2 57 38 19
1 -12 2 57 38 19
-14 -11 2 151 112 58
-13 -11 2 198 147 70
-2 -11 2 198 147 70
-2 -10 2 198 147 70
-1 -9 2 198 147 70
0 -9 2 198 147 70
1 -9 2 151 112 58
-1 -2 2 198 147 70
0 -2 2 198 147 70
1 -2 2 151 112 58
-2 -1 2 198 147 70
-14 0 2 151 112 58
-13 0 2 198 147 70
-2 0 2 198 147 70
-13 1 2 198 147 70
-2 1 2 198 147 70
0 1 2 57 38 19
1 1 2 57 38 19
-13 2 2 151 112 58
-2 2 2 198 147 70
-13 -13 3 151 112 58
-2 -13 3 198 147 70
-13 -12 3 151 112 58
-2 -12 3 198 147 70
0 -12 3 57 38 19
1 -12 3 57 38 19
-14 -11 3 151 112 58
-13 -11 3 198 147 70
-2 -11 3 198 147 70
-2 -10 3 198 147 70
-1 -9 3 198 147 70
0 -9 3 198 147 70
1 -9 3 151 112 58
-1 -2 3 198 147 70
0 -2 3 198 147 70
1 -2 3 151 112 58
-2 -1 3 198 147 70
-14 0 3 151 112 58
-13 0 3 198 147 70
-2 0 3 198 147 70
-13 1 3 151 112 58
-2 1 3 198 147 70
0 1 3 57 38 19
1 1 3 57 38 19
-13 2 3 151 112 58
-2 2 3 198 147 70
-13 -13 4 151 112 58
-2 -13 4 198 147 70
-13 -12 4 151 112 58
-2 -12 4 198 147 70
0 -12 4 80 58 33
1 -12 4 80 58 33
-14 -11 4 151 112 58
-13 -11 4 198 147 70
-2 -11 4 198 147 70
-2 -10 4 198 147 70
-1 -9 4 198 147 70
0 -9 4 198 147 70
1 -9 4 151 112 58
-1 -2 4 198 147 70
0 -2 4 198 147 70
1 -2 4 151 112 58
-2 -1 4 198 147 70
-14 0 4 151 112 58
-13 0 4 198 147 70
-2 0 4 198 147 70
-13 1 4 151 112 58
-2 1 4 198 147 70
0 1 4 80 58 33
1 1 4 80 58 33
-13 2 4 151 112 58
-2 2 4 198 147 70
-13 -13 5 151 112 58
-2 -13 5 198 147 70
-13 -12 5 151 112 58
-2 -12 5 198 147 70
0 -12 5 80 58 33
1 -12 5 80 58 33
-14 -11 5 151 112 58
-13 -11 5 198 147 70
-2 -11 5 198 147 70
-2 -10 5 198 147 70
-1 -9 5 198 147 70
0 -9 5 198 147 70
1 -9 5 198 147 70
-1 -2 5 198 147 70
0 -2 5 198 147 70
1 -2 5 198 147 70
-2 -1 5 198 147 70
-14 0 5 151 112 58
-13 0 5 198 147 70
-2 0 5 198 147 70
-13 1 5 151 112 58
-2 1 5 198 147 70
0 1 5 80 58 33
1 1 5 80 58 33
-13 2 5 151 112 58
-2 2 5 198 147 70
-13 -13 6 198 147 70
-2 -13 6 198 147 70
-13 -12 6 198 147 70
-2 -12 6 198 147 70
0 -12 6 57 38 19
1 -12 6 80 58 33
-14 -11 6 151 112 58
-13 -11 6 198 147 70
-2 -11 6 198 147 70
-2 -10 6 198 147 70
-1 -9 6 198 147 70
0 -9 6 198 147 70
1 -9 6 198 147 70
-1 -2 6 198 147 70
0 -2 6 198 147 70
1 -2 6 198 147 70
-2 -1 6 198 147 70
-14 0 6 151 112 58
-13 0 6 198 147 70
-2 0 6 198 147 70
-13 1 6 198 147 70
-2 1 6 198 147 70
0 1 6 57 38 19
1 1 6 80 58 33
-13 2 6 198 147 70
-2 2 6 198 147 70
-13 -13 7 151 112 58
-2 -13 7 151 112 58
-13 -12 7 151 112 58
-2 -12 7 198 147 70
-1 -12 7 151 112 58
0 -12 7 80 58 33
1 -12 7 57 38 19
-14 -11 7 151 112 58
-13 -11 7 198 147 70
-2 -11 7 198 147 70
-1 -11 7 198 147 70
-2 -10 7 198 147 70
-1 -10 7 198 147 70
-1 -9 7 198 147 70
0 -9 7 198 147 70
1 -9 7 198 147 70
-1 -2 7 198 147 70
0 -2 7 198 147 70
1 -2 7 198 147 70
-2 -1 7 198 147 70
-1 -1 7 198 147 70
-14 0 7 151 112 58
-13 0 7 198 147 70
-2 0 7 198 147 70
-1 0 7 198 147 70
-13 1 7 151 112 58
-2 1 7 198 147 70
-1 1 7 151 112 58
0 1 7 80 58 33
1 1 7 57 38 19
-13 2 7 151 112 58
-2 2 7 151 112 58
-13 -13 8 57 38 19
-2 -13 8 57 38 19
-13 -12 8 57 38 19
-2 -12 8 57 38 19
-1 -12 8 57 38 19
0 -12 8 80 58 33
1 -12 8 57 38 19
-14 -11 8 151 112 58
-13 -11 8 198 147 70
-2 -11 8 198 147 70
-1 -11 8 198 147 70
0 -11 8 198 147 70
-2 -10 8 198 147 70
-1 -10 8 198 147 70
0 -10 8 198 147 70
-1 -9 8 198 147 70
0 -9 8 198 147 70
1 -9 8 198 147 70
-1 -2 8 198 147 70
0 -2 8 198 147 70
1 -2 8 198 147 70
-2 -1 8 198 147 70
-1 -1 8 198 147 70
0 -1 8 198 147 70
-14 0 8 151 112 58
-13 0 8 198 147 70
-2 0 8 198 147 70
-1 0 8 198 147 70
0 0 8 198 147 70
-13 1 8 57 38 19
-2 1 8 57 38 19
-1 1 8 57 38 19
0 1 8 80 58 33
1 1 8 57 38 19
-13 2 8 57 38 19
-2 2 8 57 38 19
-12 -13 9 57 38 19
-3 -13 9 57 38 19
-13 -12 9 80 58 33
-12 -12 9 57 38 19
-3 -12 9 57 38 19
-2 -12 9 57 38 19
-1 -12 9 57 38 19
0 -12 9 57 38 19
1 -12 9 57 38 19
-14 -11 9 151 112 58
-13 -11 9 198 147 70
0 -11 9 198 147 70
0 -10 9 198 147 70
-1 -9 9 198 147 70
0 -9 9 198 147 70
1 -9 9 198 147 70
-1 -2 9 198 147 70
0 -2 9 198 147 70
1 -2 9 198 147 70
0 -1 9 198 147 70
-14 0 9 151 112 58
-13 0 9 198 147 70
0 0 9 198 147 70
-13 1 9 80 58 33
-12 1 9 57 38 19
-3 1 9 57 38 19
-2 1 9 57 38 19
-1 1 9 57 38 19
0 1 9 57 38 19
1 1 9 57 38 19
-12 2 9 57 38 19
-3 2 9 57 38 19
-11 -13 10 57 38 19
-4 -13 10 57 38 19
-13 -12 10 57 38 19
-12 -12 10 57 38 19
-11 -12 10 57 38 19
-4 -12 10 57 38 19
-3 -12 10 57 38 19
-2 -12 10 57 38 19
-1 -12 10 57 38 19
0 -12 10 57 38 19
1 -12 10 57 38 19
-14 -11 10 80 58 33
-13 -11 10 57 38 19
-12 -11 10 80 58 33
-11 -11 10 80 58 33
-10 -11 10 80 58 33
-9 -11 10 80 58 33
-8 -11 10 80 58 33
-7 -11 10 80 58 33
-6 -11 10 80 58 33
-5 -11 10 80 58 33
-4 -11 10 80 58 33
-3 -11 10 80 58 33
-2 -11 10 57 38 19
-1 -11 10 57 38 19
0 -11 10 57 38 19
1 -11 10 57 38 19
-13 -10 10 57 38 19
-12 -10 10 80 58 33
-11 -10 10 80 58 33
-10 -10 10 80 58 33
-9 -10 10 80 58 33
-8 -10 10 80 58 33
-7 -10 10 80 58 33
-6 -10 10 80 58 33
-5 -10 10 80 58 33
-4 -10 10 80 58 33
-3 -10 10 80 58 33
-2 -10 10 57 38 19
-1 -10 10 57 38 19
0 -10 10 57 38 19
1 -10 10 57 38 19
-1 -9 10 198 147 70
0 -9 10 198 147 70
1 -9 10 198 147 70
-1 -2 10 198 147 70
0 -2 10 198 147 70
1 -2 10 198 147 70
-13 -1 10 57 38 19
-12 -1 10 80 58 33
-11 -1 10 80 58 33
-10 -1 10 80 58 33
-9 -1 10 80 58 33
-8 -1 10 80 58 33
-7 -1 10 80 58 33
-6 -1 10 80 58 33
-5 -1 10 80 58 33
-4 -1 10 80 58 33
-3 -1 10 80 58 33
-2 -1 10 57 38 19
-1 -1 10 57 38 19
0 -1 10 57 38 19
1 -1 10 57 38 19
-14 0 10 80 58 33
-13 0 10 57 38 19
-12 0 10 80 58 33
-11 0 10 80 58 33
-10 0 10 80 58 33
-9 0 10 80 58 33
-8 0 10 80 58 33
-7 0 10 80 58 33
-6 0 10 80 58 33
-5 0 10 80 58 33
-4 0 10 80 58 33
-3 0 10 80 58 33
-2 0 10 57 38 19
-1 0 10 57 38 19
0 0 10 57 38 19
1 0 10 57 38 19
-13 1 10 57 38 19
-12 1 10 57 38 19
-11 1 10 57 38 19
-4 1 10 57 38 19
-3 1 10 57 38 19
-2 1 10 57 38 19
-1 1 10 57 38 19
0 1 10 57 38 19
1 1 10 57 38 19
-11 2 10 57 38 19
-4 2 10 57 38 19
-11 -13 11 57 38 19
-10 -13 11 80 58 33
-5 -13 11 80 58 33
-4 -13 11 57 38 19
-11 -12 11 57 38 19
-10 -12 11 80 58 33
-9 -12 11 80 58 33
-8 -12 11 80 58 33
-7 -12 11 80 58 33
-6 -12 11 80 58 33
-5 -12 11 80 58 33
-4 -12 11 57 38 19
-11 -11 11 57 38 19
-10 -11 11 80 58 33
-9 -11 11 80 58 33
-8 -11 11 80 58 33
-7 -11 11 80 58 33
-6 -11 11 80 58 33
-5 -11 11 80 58 33
-4 -11 11 57 38 19
-14 -10 11 57 38 19
-13 -10 11 80 58 33
-11 -10 11 80 58 33
-10 -10 11 80 58 33
-9 -10 11 80 58 33
-8 -10 11 80 58 33
-7 -10 11 80 58 33
-6 -10 11 80 58 33
-5 -10 11 80 58 33
-4 -10 11 80 58 33
-14 -9 11 57 38 19
-13 -9 11 57 38 19
-12 -9 11 57 38 19
-11 -9 11 198 147 70
-10 -9 11 198 147 70
-9 -9 11 198 147 70
-8 -9 11 198 147 70
-7 -9 11 198 147 70
-6 -9 11 198 147 70
-5 -9 11 198 147 70
-4 -9 11 198 147 70
-3 -9 11 57 38 19
-2 -9 11 57 38 19
-1 -9 11 80 58 33
0 -9 11 80 58 33
1 -9 11 57 38 19
-14 -2 11 57 38 19
-13 -2 11 57 38 19
-12 -2 11 57 38 19
-11 -2 11 198 147 70
-10 -2 11 198 147 70
-9 -2 11 198 147 70
-8 -2 11 198 147 70
-7 -2 11 198 147 70
-6 -2 11 198 147 70
-5 -2 11 198 147 70
-4 -2 11 198 147 70
-3 -2 11 57 38 19
-2 -2 11 57 38 19
-1 -2 11 80 58 33
0 -2 11 80 58 33
1 -2 11 57 38 19
-14 -1 11 57 38 19
-13 -1 11 80 58 33
-11 -1 11 80 58 33
-10 -1 11 80 58 33
-9 -1 11 80 58 33
-8 -1 11 80 58 33
-7 -1 11 80 58 33
-6 -1 11 80 58 33
-5 -1 11 80 58 33
-4 -1 11 80 58 33
-11 0 11 57 38 19
-10 0 11 80 58 33
-9 0 11 80 58 33
-8 0 11 80 58 33
-7 0 11 80 58 33
-6 0 11 80 58 33
-5 0 11 80 58 33
-4 0 11 57 38 19
-11 1 11 57 38 19
-10 1 11 80 58 33
-9 1 11 80 58 33
-8 1 11 80 58 33
-7 1 11 80 58 33
-6 1 11 80 58 33
-5 1 11 80 58 33
-4 1 11 57 38 19
-11 2 11 57 38 19
-10 2 11 80 58 33
-5 2 11 80 58 33
-4 2 11 57 38 19
-10 -13 12 57 38 19
-9 -13 12 80 58 33
-8 -13 12 80 58 33
-7 -13 12 80 58 33
-6 -13 12 80 58 33
-5 -13 12 57 38 19
-10 -12 12 57 38 19
-9 -12 12 80 58 33
-8 -12 12 80 58 33
-7 -12 12 80 58 33
-6 -12 12 80 58 33
-5 -12 12 57 38 19
-10 -11 12 57 38 19
-9 -11 12 80 58 33
-8 -11 12 80 58 33
-7 -11 12 80 58 33
-6 -11 12 80 58 33
-5 -11 12 57 38 19
-10 -10 12 80 58 33
-9 -10 12 80 58 33
-8 -10 12 80 58 33
-7 -10 12 80 58 33
-6 -10 12 80 58 33
-5 -10 12 80 58 33
-13 -9 12 57 38 19
-12 -9 12 80 58 33
-11 -9 12 57 38 19
-10 -9 12 80 58 33
-9 -9 12 198 147 70
-8 -9 12 198 147 70
-7 -9 12 198 147 70
-6 -9 12 198 147 70
-5 -9 12 80 58 33
-4 -9 12 57 38 19
-3 -9 12 80 58 33
-2 -9 12 57 38 19
-1 -9 12 57 38 19
0 -9 12 57 38 19
1 -9 12 57 38 19
-14 -8 12 198 147 70
-13 -8 12 80 58 33
-12 -8 12 80 58 33
-11 -8 12 80 58 33
-10 -8 12 198 147 70
-9 -8 12 198 147 70
-8 -8 12 198 147 70
-7 -8 12 198 147 70
-6 -8 12 198 147 70
-5 -8 12 198 147 70
-4 -8 12 80 58 33
-3 -8 12 80 58 33
-2 -8 12 80 58 33
-1 -8 12 80 58 33
0 -8 12 80 58 33
-14 -3 12 198 147 70
-13 -3 12 80 58 33
-12 -3 12 80 58 33
-11 -3 12 80 58 33
-10 -3 12 198 147 70
-9 -3 12 198 147 70
-8 -3 12 198 147 70
-7 -3 12 198 147 70
-6 -3 12 198 147 70
-5 -3 12 198 147 70
-4 -3 12 80 58 33
-3 -3 12 80 58 33
-2 -3 12 80 58 33
-1 -3 12 80 58 33
0 -3 12 80 58 33
-13 -2 12 57 38 19
-12 -2 12 80 58 33
-11 -2 12 57 38 19
-10 -2 12 80 58 33
-9 -2 12 198 147 70
-8 -2 12 198 147 70
-7 -2 12 198 147 70
-6 -2 12 198 147 70
-5 -2 12 80 58 33
-4 -2 12 57 38 19
-3 -2 12 80 58 33
-2 -2 12 57 38 19
-1 -2 12 57 38 19
0 -2 12 57 38 19
1 -2 12 57 38 19
-10 -1 12 80 58 33
-9 -1 12 80 58 33
-8 -1 12 80 58 33
-7 -1 12 80 58 33
-6 -1 12 80 58 33
-5 -1 12 80 58 33
-10 0 12 57 38 19
-9 0 12 80 58 33
-8 0 12 80 58 33
-7 0 12 80 58 33
-6 0 12 80 58 33
-5 0 12 57 38 19
-10 1 12 57 38 19
-9 1 12 80 58 33
-8 1 12 80 58 33
-7 1 12 80 58 33
-6 1 12 80 58 33
-5 1 12 57 38 19
-10 2 12 57 38 19
-9 2 12 80 58 33
-8 2 12 80 58 33
-7 2 12 80 58 33
-6 2 12 80 58 33
-5 2 12 57 38 19
-10 -13 13 57 38 19
-9 -13 13 80 58 33
-8 -13 13 80 58 33
-7 -13 13 80 58 33
-6 -13 13 80 58 33
-5 -13 13 57 38 19
-10 -12 13 57 38 19
-9 -12 13 80 58 33
-8 -12 13 80 58 33
-7 -12 13 80 58 33
-6 -12 13 80 58 33
-5 -12 13 57 38 19
-10 -11 13 80 58 33
-9 -11 13 80 58 33
-8 -11 13 80 58 33
-7 -11 13 80 58 33
-6 -11 13 80 58 33
-5 -11 13 80 58 33
-10 -10 13 57 38 19
-9 -10 13 80 58 33
-8 -10 13 80 58 33
-7 -10 13 80 58 33
-6 -10 13 80 58 33
-5 -10 13 57 38 19
-14 -9 13 57 38 19
-13 -9 13 80 58 33
-9 -9 13 198 147 70
-8 -9 13 198 147 70
-7 -9 13 198 147 70
-6 -9 13 198 147 70
-14 -8 13 80 58 33
-13 -8 13 80 58 33
-12 -8 13 57 38 19
-11 -8 13 80 58 33
-10 -8 13 80 58 33
-9 -8 13 198 147 70
-8 -8 13 198 147 70
-7 -8 13 198 147 70
-6 -8 13 198 147 70
-5 -8 13 80 58 33
-4 -8 13 80 58 33
-3 -8 13 57 38 19
-2 -8 13 80 58 33
-1 -8 13 80 58 33
0 -8 13 80 58 33
1 -8 13 57 38 19
-13 -7 13 80 58 33
-12 -7 13 80 58 33
-11 -7 13 198 147 70
-10 -7 13 198 147 70
-9 -7 13 198 147 70
-8 -7 13 198 147 70
-7 -7 13 198 147 70
-6 -7 13 198 147 70
-5 -7 13 198 147 70
-4 -7 13 198 147 70
-3 -7 13 80 58 33
-2 -7 13 80 58 33
-1 -7 13 80 58 33
0 -7 13 80 58 33
-13 -4 13 80 58 33
-12 -4 13 80 58 33
-11 -4 13 198 147 70
-10 -4 13 198 147 70
-9 -4 13 198 147 70
-8 -4 13 198 147 70
-7 -4 13 198 147 70
-6 -4 13 198 147 70
-5 -4 13 198 147 70
-4 -4 13 198 147 70
-3 -4 13 80 58 33
-2 -4 13 80 58 33
-1 -4 13 80 58 33
0 -4 13 80 58 33
-14 -3 13 80 58 33
-13 -3 13 80 58 33
-12 -3 13 57 38 19
-11 -3 13 80 58 33
-10 -3 13 80 58 33
-9 -3 13 198 147 70
-8 -3 13 198 147 70
-7 -3 13 198 147 70
-6 -3 13 198 147 70
-5 -3 13 80 58 33
-4 -3 13 80 58 33
-3 -3 13 57 38 19
-2 -3 13 80 58 33
-1 -3 13 80 58 33
0 -3 13 80 58 33
1 -3 13 57 38 19
-14 -2 13 57 38 19
-13 -2 13 80 58 33
-9 -2 13 198 147 70
-8 -2 13 198 147 70
-7 -2 13 198 147 70
-6 -2 13 198 147 70
-10 -1 13 57 38 19
-9 -1 13 80 58 33
-8 -1 13 80 58 33
-7 -1 13 80 58 33
-6 -1 13 80 58 33
-5 -1 13 57 38 19
-10 0 13 80 58 33
-9 0 13 80 58 33
-8 0 13 80 58 33
-7 0 13 80 58 33
-6 0 13 80 58 33
-5 0 13 80 58 33
-10 1 13 57 38 19
-9 1 13 80 58 33
-8 1 13 80 58 33
-7 1 13 80 58 33
-6 1 13 80 58 33
-5 1 13 57 38 19
-10 2 13 57 38 19
-9 2 13 80 58 33
-8 2 13 80 58 33
-7 2 13 80 58 33
-6 2 13 80 58 33
-5 2 13 57 38 19
-9 -13 14 57 38 19
-8 -13 14 80 58 33
-7 -13 14 80 58 33
-6 -13 14 80 58 33
-9 -12 14 57 38 19
-8 -12 14 80 58 33
-7 -12 14 80 58 33
-6 -12 14 57 38 19
-9 -11 14 80 58 33
-8 -11 14 80 58 33
-7 -11 14 80 58 33
-6 -11 14 80 58 33
-9 -10 14 151 112 58
-8 -10 14 80 58 33
-7 -10 14 80 58 33
-6 -10 14 151 112 58
-9 -9 14 151 112 58
-8 -9 14 198 147 70
-7 -9 14 198 147 70
-6 -9 14 151 112 58
-14 -8 14 57 38 19
-13 -8 14 57 38 19
-12 -8 14 80 58 33
-11 -8 14 80 58 33
-10 -8 14 80 58 33
-9 -8 14 198 147 70
-8 -8 14 198 147 70
-7 -8 14 198 147 70
-6 -8 14 198 147 70
-5 -8 14 80 58 33
-4 -8 14 80 58 33
-3 -8 14 80 58 33
-2 -8 14 57 38 19
-1 -8 14 57 38 19
0 -8 14 57 38 19
1 -8 14 57 38 19
-14 -7 14 80 58 33
-13 -7 14 80 58 33
-12 -7 14 80 58 33
-11 -7 14 198 147 70
-10 -7 14 198 147 70
-9 -7 14 198 147 70
-8 -7 14 198 147 70
-7 -7 14 198 147 70
-6 -7 14 198 147 70
-5 -7 14 198 147 70
-4 -7 14 198 147 70
-3 -7 14 80 58 33
-2 -7 14 80 58 33
-1 -7 14 80 58 33
0 -7 14 80 58 33
-13 -6 14 80 58 33
-12 -6 14 80 58 33
-3 -6 14 80 58 33
-2 -6 14 80 58 33
-1 -6 14 80 58 33
0 -6 14 80 58 33
-13 -5 14 80 58 33
-12 -5 14 80 58 33
-3 -5 14 80 58 33
-2 -5 14 80 58 33
-1 -5 14 80 58 33
0 -5 14 80 58 33
-14 -4 14 80 58 33
-13 -4 14 80 58 33
-12 -4 14 80 58 33
-11 -4 14 198 147 70
-10 -4 14 198 147 70
-9 -4 14 198 147 70
-8 -4 14 198 147 70
-7 -4 14 198 147 70
-6 -4 14 198 147 70
-5 -4 14 198 147 70
-4 -4 14 198 147 70
-3 -4 14 80 58 33
-2 -4 14 80 58 33
-1 -4 14 80 58 33
0 -4 14 80 58 33
-14 -3 14 57 38 19
-13 -3 14 57 38 19
-12 -3 14 80 58 33
-11 -3 14 80 58 33
-10 -3 14 80 58 33
-9 -3 14 198 147 70
-8 -3 14 198 147 70
-7 -3 14 198 147 70
-6 -3 14 198 147 70
-5 -3 14 80 58 33
-4 -3 14 80 58 33
-3 -3 14 80 58 33
-2 -3 14 57 38 19
-1 -3 14 57 38 19
0 -3 14 57 38 19
1 -3 14 57 38 19
-9 -2 14 151 112 58
-8 -2 14 198 147 70
-7 -2 14 198 147 70
-6 -2 14 151 112 58
-9 -1 14 151 112 58
-8 -1 14 80 58 33
-7 -1 14 80 58 33
-6 -1 14 151 112 58
-9 0 14 80 58 33
-8 0 14 80 58 33
-7 0 14 80 58 33
-6 0 14 80 58 33
-9 1 14 57 38 19
-8 1 14 80 58 33
-7 1 14 80 58 33
-6 1 14 57 38 19
-9 2 14 57 38 19
-8 2 14 80 58 33
-7 2 14 80 58 33
-6 2 14 80 58 33
-9 -13 15 57 38 19
-8 -13 15 57 38 19
-7 -13 15 57 38 19
-6 -13 15 57 38 19
-9 -12 15 80 58 33
-8 -12 15 80 58 33
-7 -12 15 80 58 33
-6 -12 15 57 38 19
-9 -11 15 80 58 33
-8 -11 15 80 58 33
-7 -11 15 80 58 33
-6 -11 15 80 58 33
-9 -10 15 151 112 58
-8 -10 15 80 58 33
-7 -10 15 80 58 33
-6 -10 15 151 112 58
-9 -9 15 151 112 58
-8 -9 15 198 147 70
-7 -9 15 198 147 70
-6 -9 15 151 112 58
-10 -8 15 80 58 33
-9 -8 15 198 147 70
-8 -8 15 198 147 70
-7 -8 15 198 147 70
-6 -8 15 198 147 70
-5 -8 15 80 58 33
-14 -7 15 80 58 33
-13 -7 15 80 58 33
-12 -7 15 80 58 33
-11 -7 15 198 147 70
-10 -7 15 198 147 70
-9 -7 15 198 147 70
-8 -7 15 198 147 70
-7 -7 15 198 147 70
-6 -7 15 198 147 70
-5 -7 15 198 147 70
-4 -7 15 198 147 70
-3 -7 15 80 58 33
-2 -7 15 80 58 33
-1 -7 15 57 38 19
0 -7 15 57 38 19
1 -7 15 57 38 19
-13 -6 15 80 58 33
-12 -6 15 80 58 33
-3 -6 15 80 58 33
-2 -6 15 80 58 33
-1 -6 15 80 58 33
0 -6 15 80 58 33
-13 -5 15 80 58 33
-12 -5 15 80 58 33
-3 -5 15 80 58 33
-2 -5 15 80 58 33
-1 -5 15 80 58 33
0 -5 15 80 58 33
-14 -4 15 80 58 33
-13 -4 15 80 58 33
-12 -4 15 80 58 33
-11 -4 15 198 147 70
-10 -4 15 198 147 70
-9 -4 15 198 147 70
-8 -4 15 198 147 70
-7 -4 15 198 147 70
-6 -4 15 198 147 70
-5 -4 15 198 147 70
-4 -4 15 198 147 70
-3 -4 15 80 58 33
-2 -4 15 80 58 33
-1 -4 15 57 38 19
0 -4 15 57 38 19
1 -4 15 57 38 19
-10 -3 15 80 58 33
-9 -3 15 198 147 70
-8 -3 15 198 147 70
-7 -3 15 198 147 70
-6 -3 15 198 147 70
-5 -3 15 80 58 33
-9 -2 15 151 112 58
-8 -2 15 198 147 70
-7 -2 15 198 147 70
-6 -2 15 151 112 58
-9 -1 15 151 112 58
-8 -1 15 80 58 33
-7 -1 15 80 58 33
-6 -1 15 151 112 58
-9 0 15 80 58 33
-8 0 15 80 58 33
-7 0 15 80 58 33
-6 0 15 80 58 33
-9 1 15 80 58 33
-8 1 15 80 58 33
-7 1 15 80 58 33
-6 1 15 57 38 19
-9 2 15 57 38 19
-8 2 15 57 38 19
-7 2 15 57 38 19
-6 2 15 57 38 19
-8 -13 16 57 38 19
-7 -13 16 57 38 19
-8 -12 16 57 38 19
-7 -12 16 57 38 19
-8 -11 16 80 58 33
-7 -11 16 80 58 33
-8 -10 16 80 58 33
-7 -10 16 80 58 33
-9 -9 16 151 112 58
-8 -9 16 198 147 70
-7 -9 16 198 147 70
-6 -9 16 151 112 58
-10 -8 16 80 58 33
-9 -8 16 198 147 70
-8 -8 16 198 147 70
-7 -8 16 198 147 70
-6 -8 16 198 147 70
-5 -8 16 80 58 33
-14 -7 16 80 58 33
-13 -7 16 57 38 19
-11 -7 16 151 112 58
-10 -7 16 198 147 70
-9 -7 16 198 147 70
-8 -7 16 198 147 70
-7 -7 16 198 147 70
-6 -7 16 198 147 70
-5 -7 16 198 147 70
-4 -7 16 151 112 58
-13 -6 16 80 58 33
-12 -6 16 80 58 33
-3 -6 16 80 58 33
-2 -6 16 80 58 33
-1 -6 16 80 58 33
0 -6 16 80 58 33
1 -6 16 80 58 33
-13 -5 16 80 58 33
-12 -5 16 80 58 33
-3 -5 16 80 58 33
-2 -5 16 80 58 33
-1 -5 16 80 58 33
0 -5 16 80 58 33
1 -5 16 80 58 33
-14 -4 16 80 58 33
-13 -4 16 57 38 19
-11 -4 16 151 112 58
-10 -4 16 198 147 70
-9 -4 16 198 147 70
-8 -4 16 198 147 70
-7 -4 16 198 147 70
-6 -4 16 198 147 70
-5 -4 16 198 147 70
-4 -4 16 151 112 58
-10 -3 16 80 58 33
-9 -3 16 198 147 70
-8 -3 16 198 147 70
-7 -3 16 198 147 70
-6 -3 16 198 147 70
-5 -3 16 80 58 33
-9 -2 16 151 112 58
-8 -2 16 198 147 70
-7 -2 16 198 147 70
-6 -2 16 151 112 58
-8 -1 16 80 58 33
-7 -1 16 80 58 33
-8 0 16 80 58 33
-7 0 16 80 58 33
-8 1 16 57 38 19
-7 1 16 57 38 19
-8 2 16 57 38 19
-7 2 16 57 38 19
-8 -13 17 57 38 19
-7 -13 17 80 58 33
-8 -12 17 57 38 19
-7 -12 17 80 58 33
-8 -11 17 80 58 33
-7 -11 17 80 58 33
-8 -10 17 80 58 33
-7 -10 17 80 58 33
-9 -9 17 151 112 58
-8 -9 17 198 147 70
-7 -9 17 198 147 70
-6 -9 17 151 112 58
-10 -8 17 80 58 33
-5 -8 17 80 58 33
-14 -7 17 57 38 19
-13 -7 17 80 58 33
-11 -7 17 151 112 58
-4 -7 17 151 112 58
-13 -6 17 80 58 33
-12 -6 17 57 38 19
-3 -6 17 57 38 19
-2 -6 17 80 58 33
-1 -6 17 80 58 33
0 -6 17 80 58 33
1 -6 17 80 58 33
-13 -5 17 80 58 33
-12 -5 17 57 38 19
-3 -5 17 57 38 19
-2 -5 17 80 58 33
-1 -5 17 80 58 33
0 -5 17 80 58 33
1 -5 17 80 58 33
-14 -4 17 57 38 19
-13 -4 17 80 58 33
-11 -4 17 151 112 58
-4 -4 17 151 112 58
-10 -3 17 80 58 33
-5 -3 17 80 58 33
-9 -2 17 151 112 58
-8 -2 17 198 147 70
-7 -2 17 198 147 70
-6 -2 17 151 112 58
-8 -1 17 80 58 33
-7 -1 17 80 58 33
-8 0 17 80 58 33
-7 0 17 80 58 33
-8 1 17 57 38 19
-7 1 17 80 58 33
-8 2 17 57 38 19
-7 2 17 80 58 33
-9 -9 18 151 112 58
-8 -9 18 151 112 58
-7 -9 18 151 112 58
-6 -9 18 151 112 58
-10 -8 18 80 58 33
-5 -8 18 80 58 33
-11 -7 18 151 112 58
-4 -7 18 151 112 58
-14 -6 18 57 38 19
-13 -6 18 80 58 33
-11 -6 18 151 112 58
-4 -6 18 151 112 58
-14 -5 18 57 38 19
-13 -5 18 80 58 33
-11 -5 18 151 112 58
-4 -5 18 151 112 58
-11 -4 18 151 112 58
-4 -4 18 151 112 58
-10 -3 18 80 58 33
-5 -3 18 80 58 33
-9 -2 18 151 112 58
-8 -2 18 151 112 58
-7 -2 18 151 112 58
-6 -2 18 151 112 58
-9 -9 19 198 147 70
-8 -9 19 198 147 70
-7 -9 19 198 147 70
-6 -9 19 198 147 70
-10 -8 19 80 58 33
-5 -8 19 80 58 33
-11 -7 19 198 147 70
-4 -7 19 198 147 70
-11 -6 19 151 112 58
-4 -6 19 151 112 58
-11 -5 19 151 112 58
-4 -5 19 151 112 58
-11 -4 19 198 147 70
-4 -4 19 198 147 70
-10 -3 19 80 58 33
-5 -3 19 80 58 33
-9 -2 19 198 147 70
-8 -2 19 198 147 70
-7 -2 19 198 147 70
-6 -2 19 198 147 70
-9 -9 20 80 58 33
-8 -9 20 80 58 33
-7 -9 20 80 58 33
-6 -9 20 80 58 33
-10 -8 20 80 58 33
-5 -8 20 80 58 33
-11 -7 20 80 58 33
-4 -7 20 80 58 33
-11 -6 20 80 58 33
-4 -6 20 80 58 33
-11 -5 20 80 58 33
-4 -5 20 80 58 33
-11 -4 20 80 58 33
-4 -4 20 80 58 33
-10 -3 20 80 58 33
-5 -3 20 80 58 33
-9 -2 20 80 58 33
-8 -2 20 80 58 33
-7 -2 20 80 58 33
-6 -2 20 80 58 33
-9 -9 21 198 147 70
-8 -9 21 198 147 70
-7 -9 21 198 147 70
-6 -9 21 198 147 70
-10 -8 21 80 58 33
-5 -8 21 80 58 33
-11 -7 21 198 147 70
-4 -7 21 198 147 70
-11 -6 21 198 147 70
-4 -6 21 198 147 70
-11 -5 21 198 147 70
-4 -5 21 198 147 70
-11 -4 21 198 147 70
-4 -4 21 198 147 70
-10 -3 21 80 58 33
-5 -3 21 80 58 33
-9 -2 21 198 147 70
-8 -2 21 198 147 70
-7 -2 21 198 147 70
-6 -2 21 198 147 70
-9 -9 22 198 147 70
-8 -9 22 198 147 70
-7 -9 22 198 147 70
-6 -9 22 198 147 70
-10 -8 22 80 58 33
-5 -8 22 80 58 33
-11 -7 22 198 147 70
-4 -7 22 198 147 70
-11 -6 22 198 147 70
-4 -6 22 198 147 70
-11 -5 22 198 147 70
-4 -5 22 198 147 70
-11 -4 22 198 147 70
-4 -4 22 198 147 70
-10 -3 22 80 58 33
-5 -3 22 80 58 33
-9 -2 22 198 147 70
-8 -2 22 198 147 70
-7 -2 22 198 147 70
-6 -2 22 198 147 70
-9 -9 23 57 38 19
-8 -9 23 57 38 19
-7 -9 23 57 38 19
-6 -9 23 57 38 19
-10 -8 23 57 38 19
-9 -8 23 57 38 19
-8 -8 23 57 38 19
-7 -8 23 57 38 19
-6 -8 23 57 38 19
-5 -8 23 57 38 19
-11 -7 23 80 58 33
-10 -7 23 57 38 19
-9 -7 23 57 38 19
-6 -7 23 57 38 19
-5 -7 23 57 38 19
-4 -7 23 80 58 33
-11 -6 23 57 38 19
-10 -6 23 57 38 19
-9 -6 23 57 38 19
-6 -6 23 57 38 19
-5 -6 23 57 38 19
-4 -6 23 57 38 19
-11 -5 23 57 38 19
-10 -5 23 57 38 19
-9 -5 23 57 38 19
-6 -5 23 57 38 19
-5 -5 23 57 38 19
-4 -5 23 57 38 19
-11 -4 23 80 58 33
-10 -4 23 57 38 19
-9 -4 23 57 38 19
-6 -4 23 57 38 19
-5 -4 23 57 38 19
-4 -4 23 80 58 33
-10 -3 23 57 38 19
-9 -3 23 57 38 19
-8 -3 23 57 38 19
-7 -3 23 57 38 19
-6 -3 23 57 38 19
-5 -3 23 57 38 19
-9 -2 23 57 38 19
-8 -2 23 57 38 19
-7 -2 23 57 38 19
-6 -2 23 57 38 19
-8 -7 24 151 112 58
-7 -7 24 151 112 58
-9 -6 24 198 147 70
-8 -6 24 198 147 70
-7 -6 24 198 147 70
-6 -6 24 198 147 70
-9 -5 24 198 147 70
-8 -5 24 198 147 70
-7 -5 24 198 147 70
-6 -5 24 198 147 70
-8 -4 24 151 112 58
-7 -4 24 151 112 58
-8 -7 25 198 147 70
-7 -7 25 198 147 70
-9 -6 25 198 147 70
-8 -6 25 198 147 70
-7 -6 25 198 147 70
-6 -6 25 198 147 70
-9 -5 25 198 147 70
-8 -5 25 198 147 70
-7 -5 25 198 147 70
-6 -5 25 198 147 70
-8 -4 25 198 147 70
-7 -4 25 198 147 70
-8 -7 26 198 147 70
-7 -7 26 198 147 70
-9 -6 26 198 147 70
-8 -6 26 198 147 70
-7 -6 26 198 147 70
-6 -6 26 198 147 70
-9 -5 26 198 147 70
-8 -5 26 198 147 70
-7 -5 26 198 147 70
-6 -5 26 198 147 70
-8 -4 26 198 147 70
-7 -4 26 198 147 70
-8 -7 27 151 112 58
-7 -7 27 151 112 58
-9 -6 27 198 147 70
-8 -6 27 198 147 70
-7 -6 27 198 147 70
-6 -6 27 198 147 70
-9 -5 27 198 147 70
-8 -5 27 198 147 70
-7 -5 27 198 147 70
-6 -5 27 198 147 70
-8 -4 27 151 112 58
-7 -4 27 151 112 58
-8 -7 28 198 147 70
-7 -7 28 198 147 70
-9 -6 28 198 147 70
-8 -6 28 198 147 70
-7 -6 28 198 147 70
-6 -6 28 198 147 70
-9 -5 28 198 147 70
-8 -5 28 198 147 70
-7 -5 28 198 147 70
-6 -5 28 198 147 70
-8 -4 28 198 147 70
-7 -4 28 198 147 70
-8 -7 29 198 147 70
-7 -7 29 198 147 70
-9 -6 29 198 147 70
-8 -6 29 198 147 70
-7 -6 29 198 147 70
-6 -6 29 198 147 70
-9 -5 29 198 147 70
-8 -5 29 198 147 70
-7 -5 29 198 147 70
-6 -5 29 198 147 70
-8 -4 29 198 147 70
-7 -4 29 198 147 70
-8 -7 30 198 147 70
-7 -7 30 198 147 70
-8 -6 30 248 233 68
-7 -6 30 248 233 68
-8 -5 30 248 233 68
-7 -5 30 248 233 68
-8 -4 30 198 147 70
-7 -4 30 198 147 70
-8 -7 31 198 147 70
-7 -7 31 198 147 70
-8 -6 31 248 233 68
-7 -6 31 248 233 68
-8 -5 31 248 233 68
-7 -5 31 248 233 68
-8 -4 31 198 147 70
-7 -4 31 198 147 70
-8 -7 32 198 147 70
-7 -7 32 198 147 70
-9 -6 32 198 147 70
-8 -6 32 198 147 70
-7 -6 32 198 147 70
-6 -6 32 198 147 70
-9 -5 32 198 147 70
-8 -5 32 198 147 70
-7 -5 32 198 147 70
-6 -5 32 198 147 70
-8 -4 32 198 147 70
-7 -4 32 198 147 70
-8 -9 33 136 65 46
-7 -9 33 136 65 46
-9 -8 33 181 88 63
-8 -8 33 136 65 46
-7 -8 33 136 65 46
-6 -8 33 181 88 63
-10 -7 33 181 88 63
-9 -7 33 136 65 46
-8 -7 33 136 65 46
-7 -7 33 136 65 46
-6 -7 33 136 65 46
-5 -7 33 181 88 63
-10 -6 33 136 65 46
-9 -6 33 136 65 46
-8 -6 33 136 65 46
-7 -6 33 136 65 46
-6 -6 33 136 65 46
-5 -6 33 136 65 46
-10 -5 33 136 65 46
-9 -5 33 136 65 46
-8 -5 33 136 65 46
-7 -5 33 136 65 46
-6 -5 33 136 65 46
-5 -5 33 136 65 46
-10 -4 33 181 88 63
-9 -4 33 136 65 46
-8 -4 33 136 65 46
-7 -4 33 136 65 46
-6 -4 33 136 65 46
-5 -4 33 181 88 63
-9 -3 33 181 88 63
-8 -3 33 136 65 46
-7 -3 33 136 65 46
-6 -3 33 181 88 63
-8 -2 33 136 65 46
-7 -2 33 136 65 46
-8 -8 34 136 65 46
-7 -8 34 136 65 46
-9 -7 34 136 65 46
-8 -7 34 136 65 46
-7 -7 34 136 65 46
-6 -7 34 136 65 46
-10 -6 34 136 65 46
-9 -6 34 136 65 46
-8 -6 34 136 65 46
-7 -6 34 136 65 46
-6 -6 34 136 65 46
-5 -6 34 136 65 46
-10 -5 34 136 65 46
-9 -5 34 136 65 46
-8 -5 34 136 65 46
-7 -5 34 136 65 46
-6 -5 34 136 65 46
-5 -5 34 136 65 46
-9 -4 34 136 65 46
-8 -4 34 136 65 46
-7 -4 34 136 65 46
-6 -4 34 136 65 46
-8 -3 34 136 65 46
-7 -3 34 136 65 46
-8 -7 35 136 65 46
-7 -7 35 136 65 46
-9 -6 35 136 65 46
-8 -6 35 136 65 46
-7 -6 35 136 65 46
-6 -6 35 136 65 46
-9 -5 35 136 65 46
-8 -5 35 136 65 46
-7 -5 35 136 65 46
-6 -5 35 136 65 46
-8 -4 35 136 65 46
-7 -4 35 136 65 46
-9 -6 36 181 88 63
-8 -6 36 136 65 46
-7 -6 36 136 65 46
-6 -6 36 181 88 63
-9 -5 36 181 88 63
-8 -5 36 136 65 46
-7 -5 36 136 65 46
-6 -5 36 181 88 63
-8 -9 37 134 36 23
-7 -9 37 134 36 23
-8 -6 37 181 88 63
-7 -6 37 181 88 63
-8 -5 37 181 88 63
-7 -5 37 181 88 63
-8 -2 37 134 36 23
-7 -2 37 134 36 23
-8 -10 38 237 43 0
-7 -10 38 237 43 0
-8 -8 38 134 36 23
-7 -8 38 134 36 23
-8 -3 38 237 43 0
-7 -3 38 237 43 0
-8 -1 38 134 36 23
-7 -1 38 134 36 23
-8 -9 39 237 43 0
-7 -9 39 237 43 0
-8 -2 39 237 43 0
-7 -2 39 237 43 0
-8 -9 40 83 136 90
-7 -9 40 83 136 90
-8 -2 40 83 136 90
-7 -2 40 83 136 90
-8 -8 41 83 136 90
-7 -8 41 83 136 90
-8 -3 41 83 136 90
-7 -3 41 83 136 90
-8 -8 42 83 136 90
-7 -8 42 83 136 90
-8 -3 42 83 136 90
-7 -3 42 83 136 90
-8 -7 43 99 156 96
-7 -7 43 99 156 96
-8 -4 43 99 156 96
-7 -4 43 99 156 96
-8 -6 44 99 156 96
-7 -6 44 99 156 96
-8 -5 44 99 156 96
-7 -5 44 99 156 96
-8 -4 45 125 201 98
-7 -4 45 125 201 98
-8 -3 45 99 156 96
-7 -3 45 99 156 96
-8 -4 46 99 156 96
-7 -4 46 99 156 96
-8 -3 46 125 201 98
-7 -3 46 125 201 98
-8 -2 46 99 156 96
-7 -2 46 99 156 96
-8 -3 47 99 156 96
-7 -3 47 99 156 96
-8 -2 47 125 201 98
-7 -2 47 125 201 98
