ply
format ascii 1.0
comment : MagicaVoxel @ Ephtracy
element vertex 914
property float x
property float y
property float z
property uchar red
property uchar green
property uchar blue
end_header
-14 -7 0 57 38 19
-12 -7 0 57 38 19
-14 -6 0 57 38 19
-12 -6 0 57 38 19
-14 -5 0 57 38 19
-13 -5 0 54 54 54
-12 -5 0 57 38 19
-22 -4 0 57 38 19
-21 -4 0 198 147 70
-20 -4 0 198 147 70
-19 -4 0 198 147 70
-18 -4 0 198 147 70
-17 -4 0 57 38 19
-16 -4 0 198 147 70
-15 -4 0 198 147 70
-11 -4 0 57 38 19
-22 -3 0 198 147 70
-11 -3 0 198 147 70
-22 -2 0 198 147 70
-11 -2 0 198 147 70
-22 -1 0 198 147 70
-11 -1 0 198 147 70
-22 0 0 57 38 19
-11 0 0 57 38 19
-22 1 0 198 147 70
-11 1 0 198 147 70
-22 2 0 198 147 70
-11 2 0 198 147 70
-22 3 0 198 147 70
-11 3 0 198 147 70
-22 4 0 57 38 19
-21 4 0 198 147 70
-20 4 0 198 147 70
-19 4 0 198 147 70
-18 4 0 57 38 19
-17 4 0 198 147 70
-16 4 0 198 147 70
-15 4 0 57 38 19
-14 4 0 198 147 70
-13 4 0 198 147 70
-12 4 0 198 147 70
-11 4 0 57 38 19
-14 -6 1 80 58 33
-12 -6 1 80 58 33
-14 -5 1 80 58 33
-13 -5 1 54 54 54
-12 -5 1 80 58 33
-22 -4 1 80 58 33
-21 -4 1 198 147 70
-20 -4 1 198 147 70
-19 -4 1 198 147 70
-18 -4 1 198 147 70
-17 -4 1 80 58 33
-16 -4 1 198 147 70
-15 -4 1 198 147 70
-11 -4 1 57 38 19
-22 -3 1 198 147 70
-11 -3 1 198 147 70
-22 -2 1 198 147 70
-11 -2 1 198 147 70
-10 -2 1 136 65 46
-22 -1 1 198 147 70
-11 -1 1 198 147 70
-22 0 1 80 58 33
-11 0 1 80 58 33
-22 1 1 198 147 70
-11 1 1 198 147 70
-22 2 1 198 147 70
-11 2 1 198 147 70
-10 2 1 136 65 46
-22 3 1 198 147 70
-11 3 1 198 147 70
-22 4 1 80 58 33
-21 4 1 198 147 70
-20 4 1 198 147 70
-19 4 1 198 147 70
-18 4 1 80 58 33
-17 4 1 198 147 70
-16 4 1 198 147 70
-15 4 1 80 58 33
-14 4 1 198 147 70
-13 4 1 198 147 70
-12 4 1 198 147 70
-11 4 1 80 58 33
-14 -6 2 57 38 19
-12 -6 2 57 38 19
-14 -5 2 57 38 19
-13 -5 2 54 54 54
-12 -5 2 57 38 19
-22 -4 2 80 58 33
-21 -4 2 80 58 33
-20 -4 2 80 58 33
-19 -4 2 80 58 33
-18 -4 2 80 58 33
-17 -4 2 80 58 33
-16 -4 2 80 58 33
-15 -4 2 80 58 33
-11 -4 2 57 38 19
-22 -3 2 80 58 33
-11 -3 2 198 147 70
-22 -2 2 80 58 33
-12 -2 2 255 225 0
-22 -1 2 80 58 33
-11 -1 2 198 147 70
-22 0 2 80 58 33
-11 0 2 80 58 33
-22 1 2 80 58 33
-11 1 2 198 147 70
-22 2 2 80 58 33
-12 2 2 255 225 0
-22 3 2 80 58 33
-11 3 2 198 147 70
-22 4 2 80 58 33
-21 4 2 80 58 33
-20 4 2 80 58 33
-19 4 2 80 58 33
-18 4 2 80 58 33
-17 4 2 80 58 33
-16 4 2 80 58 33
-15 4 2 80 58 33
-14 4 2 80 58 33
-13 4 2 80 58 33
-12 4 2 80 58 33
-11 4 2 80 58 33
-11 -7 3 136 65 46
-15 -6 3 136 65 46
-14 -6 3 57 38 19
-13 -6 3 255 225 0
-12 -6 3 57 38 19
-11 -6 3 136 65 46
-15 -5 3 181 88 63
-14 -5 3 57 38 19
-13 -5 3 57 38 19
-12 -5 3 57 38 19
-11 -5 3 136 65 46
-22 -4 3 80 58 33
-21 -4 3 198 147 70
-20 -4 3 198 147 70
-19 -4 3 198 147 70
-18 -4 3 198 147 70
-17 -4 3 80 58 33
-16 -4 3 198 147 70
-15 -4 3 198 147 70
-11 -4 3 57 38 19
-10 -4 3 80 58 33
-9 -4 3 80 58 33
-22 -3 3 198 147 70
-11 -3 3 198 147 70
-22 -2 3 198 147 70
-12 -2 3 255 225 0
-22 -1 3 198 147 70
-11 -1 3 198 147 70
-22 0 3 80 58 33
-11 0 3 80 58 33
-22 1 3 198 147 70
-11 1 3 198 147 70
-22 2 3 198 147 70
-12 2 3 255 225 0
-22 3 3 198 147 70
-11 3 3 198 147 70
-22 4 3 80 58 33
-21 4 3 198 147 70
-20 4 3 198 147 70
-19 4 3 198 147 70
-18 4 3 80 58 33
-17 4 3 198 147 70
-16 4 3 198 147 70
-15 4 3 80 58 33
-14 4 3 198 147 70
-13 4 3 198 147 70
-12 4 3 198 147 70
-11 4 3 80 58 33
-10 4 3 80 58 33
-9 4 3 80 58 33
-14 -7 4 136 65 46
-13 -7 4 136 65 46
-12 -7 4 181 88 63
-14 -6 4 136 65 46
-13 -6 4 57 38 19
-12 -6 4 136 65 46
-14 -5 4 136 65 46
-13 -5 4 136 65 46
-12 -5 4 136 65 46
-22 -4 4 57 38 19
-21 -4 4 198 147 70
-20 -4 4 198 147 70
-19 -4 4 198 147 70
-18 -4 4 198 147 70
-17 -4 4 57 38 19
-16 -4 4 198 147 70
-15 -4 4 198 147 70
-11 -4 4 57 38 19
-22 -3 4 198 147 70
-11 -3 4 198 147 70
-22 -2 4 198 147 70
-11 -2 4 198 147 70
-22 -1 4 198 147 70
-11 -1 4 198 147 70
-22 0 4 80 58 33
-11 0 4 80 58 33
-22 1 4 198 147 70
-11 1 4 198 147 70
-22 2 4 198 147 70
-11 2 4 198 147 70
-22 3 4 198 147 70
-11 3 4 198 147 70
-22 4 4 57 38 19
-21 4 4 151 112 58
-20 4 4 151 112 58
-19 4 4 151 112 58
-18 4 4 57 38 19
-17 4 4 151 112 58
-16 4 4 151 112 58
-15 4 4 57 38 19
-14 4 4 151 112 58
-13 4 4 151 112 58
-12 4 4 151 112 58
-11 4 4 57 38 19
-13 -7 5 181 88 63
-13 -6 5 136 65 46
-23 -5 5 136 65 46
-22 -5 5 136 65 46
-21 -5 5 136 65 46
-20 -5 5 136 65 46
-19 -5 5 136 65 46
-18 -5 5 181 88 63
-17 -5 5 181 88 63
-16 -5 5 136 65 46
-15 -5 5 136 65 46
-14 -5 5 136 65 46
-13 -5 5 181 88 63
-12 -5 5 136 65 46
-11 -5 5 136 65 46
-10 -5 5 136 65 46
-22 -4 5 57 38 19
-21 -4 5 136 65 46
-20 -4 5 136 65 46
-19 -4 5 136 65 46
-18 -4 5 136 65 46
-17 -4 5 136 65 46
-16 -4 5 136 65 46
-15 -4 5 136 65 46
-14 -4 5 136 65 46
-13 -4 5 136 65 46
-12 -4 5 136 65 46
-11 -4 5 57 38 19
-10 -4 5 181 88 63
-9 -4 5 56 139 48
-22 -3 5 80 58 33
-11 -3 5 57 38 19
-10 -3 5 136 65 46
-9 -3 5 35 88 67
-22 -2 5 80 58 33
-11 -2 5 80 58 33
-10 -2 5 136 65 46
-9 -2 5 56 139 48
-22 -1 5 80 58 33
-11 -1 5 80 58 33
-10 -1 5 136 65 46
-9 -1 5 35 88 67
-22 0 5 80 58 33
-11 0 5 80 58 33
-10 0 5 136 65 46
-9 0 5 56 139 48
-22 1 5 80 58 33
-11 1 5 80 58 33
-10 1 5 181 88 63
-9 1 5 35 88 67
-22 2 5 80 58 33
-11 2 5 80 58 33
-10 2 5 136 65 46
-9 2 5 56 139 48
-22 3 5 80 58 33
-11 3 5 57 38 19
-10 3 5 136 65 46
-9 3 5 35 88 67
-22 4 5 57 38 19
-21 4 5 136 65 46
-20 4 5 136 65 46
-19 4 5 136 65 46
-18 4 5 136 65 46
-17 4 5 136 65 46
-16 4 5 136 65 46
-15 4 5 136 65 46
-14 4 5 136 65 46
-13 4 5 136 65 46
-12 4 5 136 65 46
-11 4 5 136 65 46
-10 4 5 181 88 63
-9 4 5 56 139 48
-23 5 5 136 65 46
-22 5 5 136 65 46
-21 5 5 136 65 46
-20 5 5 136 65 46
-19 5 5 136 65 46
-18 5 5 136 65 46
-17 5 5 181 88 63
-16 5 5 136 65 46
-15 5 5 136 65 46
-14 5 5 136 65 46
-13 5 5 181 88 63
-12 5 5 136 65 46
-11 5 5 136 65 46
-10 5 5 136 65 46
-23 -4 6 136 65 46
-22 -4 6 136 65 46
-21 -4 6 181 88 63
-20 -4 6 181 88 63
-19 -4 6 136 65 46
-18 -4 6 136 65 46
-17 -4 6 136 65 46
-16 -4 6 136 65 46
-15 -4 6 136 65 46
-14 -4 6 136 65 46
-13 -4 6 136 65 46
-12 -4 6 136 65 46
-11 -4 6 181 88 63
-10 -4 6 136 65 46
-23 -3 6 181 88 63
-22 -3 6 136 65 46
-21 -3 6 181 88 63
-20 -3 6 136 65 46
-19 -3 6 136 65 46
-18 -3 6 181 88 63
-17 -3 6 181 88 63
-16 -3 6 181 88 63
-15 -3 6 136 65 46
-14 -3 6 181 88 63
-13 -3 6 181 88 63
-12 -3 6 136 65 46
-11 -3 6 181 88 63
-10 -3 6 136 65 46
-22 -2 6 151 112 58
-11 -2 6 136 65 46
-22 -1 6 198 147 70
-11 -1 6 198 147 70
-22 0 6 80 58 33
-11 0 6 80 58 33
-22 1 6 198 147 70
-11 1 6 198 147 70
-22 2 6 151 112 58
-11 2 6 198 147 70
-23 3 6 181 88 63
-22 3 6 136 65 46
-11 3 6 136 65 46
-10 3 6 136 65 46
-23 4 6 136 65 46
-22 4 6 136 65 46
-21 4 6 136 65 46
-20 4 6 136 65 46
-19 4 6 181 88 63
-18 4 6 136 65 46
-17 4 6 136 65 46
-16 4 6 136 65 46
-15 4 6 136 65 46
-14 4 6 136 65 46
-13 4 6 181 88 63
-12 4 6 181 88 63
-11 4 6 181 88 63
-10 4 6 136 65 46
-23 -2 7 181 88 63
-22 -2 7 136 65 46
-21 -2 7 181 88 63
-20 -2 7 136 65 46
-19 -2 7 136 65 46
-18 -2 7 136 65 46
-17 -2 7 181 88 63
-16 -2 7 181 88 63
-15 -2 7 136 65 46
-14 -2 7 181 88 63
-13 -2 7 136 65 46
-12 -2 7 181 88 63
-11 -2 7 136 65 46
-10 -2 7 136 65 46
-22 -1 7 151 112 58
-11 -1 7 198 147 70
-22 0 7 80 58 33
-11 0 7 80 58 33
-22 1 7 151 112 58
-11 1 7 198 147 70
-23 2 7 181 88 63
-22 2 7 136 65 46
-11 2 7 136 65 46
-10 2 7 181 88 63
-21 3 7 198 147 70
-12 3 7 198 147 70
-21 4 7 57 38 19
-20 4 7 198 147 70
-19 4 7 198 147 70
-18 4 7 198 147 70
-17 4 7 198 147 70
-16 4 7 198 147 70
-15 4 7 198 147 70
-14 4 7 198 147 70
-13 4 7 198 147 70
-12 4 7 57 38 19
-16 -4 8 35 88 67
-18 -2 8 57 38 19
-17 -2 8 57 38 19
-16 -2 8 57 38 19
-15 -2 8 57 38 19
-23 -1 8 136 65 46
-22 -1 8 181 88 63
-21 -1 8 136 65 46
-20 -1 8 181 88 63
-19 -1 8 181 88 63
-18 -1 8 181 88 63
-17 -1 8 136 65 46
-16 -1 8 181 88 63
-15 -1 8 136 65 46
-14 -1 8 181 88 63
-13 -1 8 136 65 46
-12 -1 8 136 65 46
-11 -1 8 181 88 63
-10 -1 8 136 65 46
-22 0 8 57 38 19
-11 0 8 57 38 19
-23 1 8 136 65 46
-22 1 8 136 65 46
-11 1 8 181 88 63
-10 1 8 136 65 46
-22 2 8 136 65 46
-21 2 8 198 147 70
-12 2 8 198 147 70
-11 2 8 136 65 46
-21 3 8 198 147 70
-12 3 8 198 147 70
-21 4 8 57 38 19
-20 4 8 198 147 70
-19 4 8 198 147 70
-18 4 8 198 147 70
-17 4 8 198 147 70
-16 4 8 198 147 70
-15 4 8 198 147 70
-14 4 8 198 147 70
-13 4 8 198 147 70
-12 4 8 57 38 19
-17 -4 9 56 139 48
-16 -4 9 35 88 67
-18 -3 9 57 38 19
-17 -3 9 198 147 70
-16 -3 9 198 147 70
-15 -3 9 57 38 19
-18 -2 9 198 147 70
-17 -2 9 198 147 70
-16 -2 9 198 147 70
-15 -2 9 198 147 70
-18 -1 9 198 147 70
-17 -1 9 198 147 70
-16 -1 9 198 147 70
-15 -1 9 198 147 70
-23 0 9 181 88 63
-22 0 9 181 88 63
-21 0 9 181 88 63
-20 0 9 181 88 63
-19 0 9 181 88 63
-18 0 9 181 88 63
-17 0 9 181 88 63
-16 0 9 181 88 63
-15 0 9 151 112 58
-14 0 9 198 147 70
-13 0 9 181 88 63
-12 0 9 181 88 63
-11 0 9 181 88 63
-10 0 9 136 65 46
-21 1 9 198 147 70
-12 1 9 198 147 70
-20 2 9 255 225 0
-13 2 9 54 54 54
-21 3 9 198 147 70
-12 3 9 198 147 70
-21 4 9 57 38 19
-20 4 9 198 147 70
-19 4 9 198 147 70
-18 4 9 198 147 70
-17 4 9 198 147 70
-16 4 9 198 147 70
-15 4 9 198 147 70
-14 4 9 198 147 70
-13 4 9 198 147 70
-12 4 9 57 38 19
-19 6 9 136 65 46
-18 6 9 35 88 67
-17 6 9 41 116 71
-16 6 9 35 88 67
-15 6 9 41 116 71
-14 6 9 136 65 46
-18 -3 10 57 38 19
-17 -3 10 56 139 48
-16 -3 10 35 88 67
-15 -3 10 57 38 19
-18 -2 10 198 147 70
-17 -2 10 198 147 70
-16 -2 10 198 147 70
-15 -2 10 198 147 70
-18 -1 10 198 147 70
-17 -1 10 198 147 70
-16 -1 10 198 147 70
-15 -1 10 198 147 70
-21 0 10 57 38 19
-20 0 10 198 147 70
-19 0 10 198 147 70
-18 0 10 198 147 70
-17 0 10 198 147 70
-16 0 10 198 147 70
-15 0 10 198 147 70
-14 0 10 198 147 70
-13 0 10 198 147 70
-12 0 10 57 38 19
-21 1 10 198 147 70
-12 1 10 198 147 70
-20 2 10 255 225 0
-13 2 10 54 54 54
-21 3 10 198 147 70
-12 3 10 198 147 70
-21 4 10 57 38 19
-20 4 10 198 147 70
-19 4 10 198 147 70
-18 4 10 198 147 70
-17 4 10 198 147 70
-16 4 10 198 147 70
-15 4 10 198 147 70
-14 4 10 198 147 70
-13 4 10 198 147 70
-12 4 10 57 38 19
-19 5 10 136 65 46
-18 5 10 35 88 67
-17 5 10 41 116 71
-16 5 10 35 88 67
-15 5 10 41 116 71
-14 5 10 136 65 46
-18 -3 11 57 38 19
-15 -3 11 57 38 19
-18 -2 11 198 147 70
-17 -2 11 255 225 0
-16 -2 11 255 225 0
-15 -2 11 198 147 70
-18 -1 11 198 147 70
-17 -1 11 198 147 70
-16 -1 11 198 147 70
-15 -1 11 198 147 70
-21 0 11 57 38 19
-20 0 11 198 147 70
-19 0 11 198 147 70
-18 0 11 198 147 70
-17 0 11 198 147 70
-16 0 11 198 147 70
-15 0 11 198 147 70
-14 0 11 198 147 70
-13 0 11 198 147 70
-12 0 11 57 38 19
-21 1 11 198 147 70
-12 1 11 198 147 70
-21 2 11 198 147 70
-12 2 11 198 147 70
-21 3 11 198 147 70
-12 3 11 198 147 70
-21 4 11 57 38 19
-20 4 11 198 147 70
-19 4 11 198 147 70
-18 4 11 198 147 70
-17 4 11 198 147 70
-16 4 11 198 147 70
-15 4 11 198 147 70
-14 4 11 198 147 70
-13 4 11 198 147 70
-12 4 11 57 38 19
-18 -3 12 57 38 19
-15 -3 12 57 38 19
-18 -2 12 57 38 19
-17 -2 12 255 225 0
-16 -2 12 255 225 0
-15 -2 12 57 38 19
-18 -1 12 57 38 19
-17 -1 12 198 147 70
-16 -1 12 198 147 70
-15 -1 12 57 38 19
-21 0 12 57 38 19
-20 0 12 57 38 19
-19 0 12 57 38 19
-18 0 12 57 38 19
-17 0 12 57 38 19
-16 0 12 57 38 19
-15 0 12 57 38 19
-14 0 12 57 38 19
-13 0 12 57 38 19
-12 0 12 57 38 19
-21 1 12 57 38 19
-12 1 12 57 38 19
-21 2 12 57 38 19
-12 2 12 57 38 19
-21 3 12 57 38 19
-12 3 12 57 38 19
-21 4 12 57 38 19
-20 4 12 57 38 19
-19 4 12 57 38 19
-18 4 12 57 38 19
-17 4 12 57 38 19
-16 4 12 57 38 19
-15 4 12 57 38 19
-14 4 12 57 38 19
-13 4 12 57 38 19
-12 4 12 57 38 19
-18 -3 13 57 38 19
-17 -3 13 198 147 70
-16 -3 13 198 147 70
-15 -3 13 57 38 19
-18 -2 13 198 147 70
-17 -2 13 198 147 70
-16 -2 13 198 147 70
-15 -2 13 198 147 70
-18 -1 13 198 147 70
-17 -1 13 198 147 70
-16 -1 13 198 147 70
-15 -1 13 198 147 70
-21 0 13 57 38 19
-20 0 13 198 147 70
-19 0 13 198 147 70
-18 0 13 198 147 70
-17 0 13 198 147 70
-16 0 13 198 147 70
-15 0 13 198 147 70
-14 0 13 198 147 70
-13 0 13 198 147 70
-12 0 13 57 38 19
-21 1 13 198 147 70
-12 1 13 198 147 70
-22 2 13 136 65 46
-21 2 13 198 147 70
-12 2 13 198 147 70
-11 2 13 136 65 46
-21 3 13 198 147 70
-12 3 13 198 147 70
-21 4 13 57 38 19
-20 4 13 198 147 70
-19 4 13 198 147 70
-18 4 13 198 147 70
-17 4 13 198 147 70
-16 4 13 198 147 70
-15 4 13 198 147 70
-14 4 13 198 147 70
-13 4 13 198 147 70
-12 4 13 57 38 19
-19 -4 14 136 65 46
-14 -4 14 136 65 46
-19 -3 14 136 65 46
-18 -3 14 57 38 19
-17 -3 14 57 38 19
-16 -3 14 57 38 19
-15 -3 14 57 38 19
-14 -3 14 181 88 63
-19 -2 14 136 65 46
-18 -2 14 136 65 46
-17 -2 14 136 65 46
-16 -2 14 136 65 46
-15 -2 14 136 65 46
-14 -2 14 136 65 46
-19 -1 14 136 65 46
-18 -1 14 136 65 46
-17 -1 14 136 65 46
-16 -1 14 136 65 46
-15 -1 14 136 65 46
-14 -1 14 136 65 46
-21 0 14 57 38 19
-20 0 14 198 147 70
-19 0 14 198 147 70
-18 0 14 198 147 70
-17 0 14 198 147 70
-16 0 14 198 147 70
-15 0 14 198 147 70
-14 0 14 198 147 70
-13 0 14 198 147 70
-12 0 14 57 38 19
-21 1 14 198 147 70
-12 1 14 198 147 70
-20 2 14 255 225 0
-13 2 14 255 225 0
-21 3 14 198 147 70
-12 3 14 198 147 70
-21 4 14 57 38 19
-20 4 14 198 147 70
-19 4 14 198 147 70
-18 4 14 198 147 70
-17 4 14 198 147 70
-16 4 14 198 147 70
-15 4 14 198 147 70
-14 4 14 198 147 70
-13 4 14 198 147 70
-12 4 14 57 38 19
-19 6 14 136 65 46
-18 6 14 41 116 71
-17 6 14 35 88 67
-16 6 14 41 116 71
-15 6 14 35 88 67
-14 6 14 136 65 46
-18 -4 15 136 65 46
-15 -4 15 136 65 46
-18 -3 15 181 88 63
-15 -3 15 136 65 46
-18 -2 15 136 65 46
-17 -2 15 198 147 70
-16 -2 15 198 147 70
-15 -2 15 181 88 63
-18 -1 15 136 65 46
-17 -1 15 136 65 46
-16 -1 15 136 65 46
-15 -1 15 136 65 46
-21 0 15 57 38 19
-20 0 15 198 147 70
-19 0 15 181 88 63
-18 0 15 198 147 70
-17 0 15 198 147 70
-16 0 15 198 147 70
-15 0 15 198 147 70
-14 0 15 198 147 70
-13 0 15 198 147 70
-12 0 15 57 38 19
-21 1 15 198 147 70
-12 1 15 198 147 70
-20 2 15 255 225 0
-13 2 15 255 225 0
-21 3 15 198 147 70
-12 3 15 198 147 70
-21 4 15 57 38 19
-20 4 15 198 147 70
-19 4 15 198 147 70
-18 4 15 198 147 70
-17 4 15 198 147 70
-16 4 15 198 147 70
-15 4 15 198 147 70
-14 4 15 198 147 70
-13 4 15 198 147 70
-12 4 15 57 38 19
-19 5 15 136 65 46
-18 5 15 41 116 71
-17 5 15 35 88 67
-16 5 15 41 116 71
-15 5 15 35 88 67
-14 5 15 136 65 46
-17 -4 16 136 65 46
-16 -4 16 181 88 63
-17 -3 16 181 88 63
-16 -3 16 181 88 63
-17 -2 16 136 65 46
-16 -2 16 136 65 46
-17 -1 16 136 65 46
-16 -1 16 136 65 46
-21 0 16 57 38 19
-20 0 16 198 147 70
-19 0 16 198 147 70
-18 0 16 198 147 70
-17 0 16 198 147 70
-16 0 16 198 147 70
-15 0 16 198 147 70
-14 0 16 198 147 70
-13 0 16 198 147 70
-12 0 16 57 38 19
-21 1 16 198 147 70
-12 1 16 198 147 70
-21 2 16 198 147 70
-12 2 16 198 147 70
-21 3 16 198 147 70
-12 3 16 198 147 70
-21 4 16 57 38 19
-20 4 16 198 147 70
-19 4 16 198 147 70
-18 4 16 198 147 70
-17 4 16 198 147 70
-16 4 16 198 147 70
-15 4 16 198 147 70
-14 4 16 198 147 70
-13 4 16 198 147 70
-12 4 16 57 38 19
-21 -1 17 136 65 46
-20 -1 17 136 65 46
-19 -1 17 136 65 46
-18 -1 17 136 65 46
-17 -1 17 136 65 46
-16 -1 17 136 65 46
-15 -1 17 136 65 46
-14 -1 17 136 65 46
-13 -1 17 181 88 63
-12 -1 17 136 65 46
-11 -1 17 136 65 46
-21 0 17 57 38 19
-20 0 17 136 65 46
-19 0 17 136 65 46
-18 0 17 136 65 46
-17 0 17 136 65 46
-16 0 17 136 65 46
-15 0 17 136 65 46
-14 0 17 136 65 46
-13 0 17 136 65 46
-12 0 17 57 38 19
-21 1 17 57 38 19
-20 1 17 136 65 46
-13 1 17 136 65 46
-12 1 17 57 38 19
-21 2 17 57 38 19
-20 2 17 136 65 46
-13 2 17 136 65 46
-12 2 17 57 38 19
-21 3 17 57 38 19
-20 3 17 136 65 46
-13 3 17 136 65 46
-12 3 17 57 38 19
-21 4 17 57 38 19
-20 4 17 136 65 46
-19 4 17 136 65 46
-18 4 17 136 65 46
-17 4 17 136 65 46
-16 4 17 136 65 46
-15 4 17 136 65 46
-14 4 17 136 65 46
-13 4 17 136 65 46
-12 4 17 57 38 19
-22 5 17 136 65 46
-21 5 17 181 88 63
-20 5 17 136 65 46
-19 5 17 136 65 46
-18 5 17 181 88 63
-17 5 17 136 65 46
-16 5 17 136 65 46
-15 5 17 136 65 46
-14 5 17 136 65 46
-13 5 17 181 88 63
-12 5 17 136 65 46
-11 5 17 136 65 46
-22 0 18 136 65 46
-21 0 18 136 65 46
-20 0 18 181 88 63
-19 0 18 136 65 46
-18 0 18 136 65 46
-17 0 18 136 65 46
-16 0 18 136 65 46
-15 0 18 136 65 46
-14 0 18 181 88 63
-13 0 18 136 65 46
-12 0 18 181 88 63
-11 0 18 136 65 46
-20 1 18 198 147 70
-19 1 18 136 65 46
-18 1 18 136 65 46
-17 1 18 136 65 46
-16 1 18 136 65 46
-15 1 18 136 65 46
-14 1 18 136 65 46
-13 1 18 198 147 70
-20 2 18 198 147 70
-13 2 18 198 147 70
-20 3 18 198 147 70
-19 3 18 136 65 46
-18 3 18 136 65 46
-17 3 18 136 65 46
-16 3 18 136 65 46
-15 3 18 136 65 46
-14 3 18 136 65 46
-13 3 18 198 147 70
-22 4 18 136 65 46
-21 4 18 136 65 46
-20 4 18 136 65 46
-19 4 18 181 88 63
-18 4 18 181 88 63
-17 4 18 181 88 63
-16 4 18 136 65 46
-15 4 18 181 88 63
-14 4 18 136 65 46
-13 4 18 136 65 46
-12 4 18 136 65 46
-11 4 18 136 65 46
-22 1 19 136 65 46
-21 1 19 136 65 46
-20 1 19 136 65 46
-19 1 19 181 88 63
-18 1 19 181 88 63
-17 1 19 181 88 63
-16 1 19 181 88 63
-15 1 19 181 88 63
-14 1 19 181 88 63
-13 1 19 181 88 63
-12 1 19 181 88 63
-11 1 19 136 65 46
-20 2 19 198 147 70
-19 2 19 136 65 46
-18 2 19 136 65 46
-17 2 19 136 65 46
-16 2 19 136 65 46
-15 2 19 136 65 46
-14 2 19 136 65 46
-13 2 19 198 147 70
-22 3 19 136 65 46
-21 3 19 136 65 46
-20 3 19 181 88 63
-19 3 19 136 65 46
-18 3 19 181 88 63
-17 3 19 136 65 46
-16 3 19 181 88 63
-15 3 19 136 65 46
-14 3 19 136 65 46
-13 3 19 181 88 63
-12 3 19 136 65 46
-11 3 19 136 65 46
-22 2 20 136 65 46
-21 2 20 136 65 46
-20 2 20 181 88 63
-19 2 20 181 88 63
-18 2 20 181 88 63
-17 2 20 181 88 63
-16 2 20 181 88 63
-15 2 20 181 88 63
-14 2 20 136 65 46
-13 2 20 181 88 63
-12 2 20 181 88 63
-11 2 20 136 65 46
