ply
format ascii 1.0
comment : MagicaVoxel @ Ephtracy
element vertex 357
property float x
property float y
property float z
property uchar red
property uchar green
property uchar blue
end_header
-28 -7 0 57 38 19
-27 -7 0 57 38 19
-26 -7 0 57 38 19
-25 -7 0 57 38 19
-24 -7 0 57 38 19
-23 -7 0 57 38 19
-22 -7 0 57 38 19
-21 -7 0 57 38 19
-20 -7 0 57 38 19
-19 -7 0 57 38 19
-18 -7 0 57 38 19
-17 -7 0 57 38 19
-28 -6 0 57 38 19
-27 -6 0 197 200 189
-26 -6 0 197 200 189
-25 -6 0 197 200 189
-24 -6 0 197 200 189
-23 -6 0 197 200 189
-22 -6 0 197 200 189
-21 -6 0 197 200 189
-20 -6 0 197 200 189
-19 -6 0 197 200 189
-18 -6 0 197 200 189
-17 -6 0 197 200 189
-28 -5 0 57 38 19
-27 -5 0 197 200 189
-26 -5 0 57 38 19
-25 -5 0 57 38 19
-24 -5 0 57 38 19
-23 -5 0 57 38 19
-22 -5 0 57 38 19
-21 -5 0 57 38 19
-20 -5 0 57 38 19
-19 -5 0 57 38 19
-18 -5 0 57 38 19
-17 -5 0 57 38 19
-28 -4 0 57 38 19
-27 -4 0 197 200 189
-26 -4 0 57 38 19
-24 -4 0 54 54 54
-21 -4 0 54 54 54
-29 -3 0 83 136 90
-28 -3 0 57 38 19
-27 -3 0 197 200 189
-26 -3 0 57 38 19
-25 -3 0 83 136 90
-24 -3 0 54 54 54
-21 -3 0 54 54 54
-30 -2 0 83 136 90
-28 -2 0 80 58 33
-27 -2 0 197 200 189
-26 -2 0 80 58 33
-25 -2 0 99 156 96
-24 -2 0 54 54 54
-21 -2 0 54 54 54
-30 -1 0 83 136 90
-28 -1 0 80 58 33
-27 -1 0 197 200 189
-26 -1 0 80 58 33
-24 -1 0 54 54 54
-23 -1 0 54 54 54
-22 -1 0 54 54 54
-21 -1 0 54 54 54
-31 0 0 83 136 90
-28 0 0 80 58 33
-27 0 0 197 200 189
-26 0 0 80 58 33
-24 0 0 83 136 90
-31 1 0 83 136 90
-23 1 0 57 38 19
-19 1 0 57 38 19
-31 2 0 83 136 90
-23 2 0 83 136 90
-31 3 0 83 136 90
-23 3 0 83 136 90
-31 4 0 83 136 90
-23 4 0 83 136 90
-31 5 0 83 136 90
-24 5 0 83 136 90
-23 5 0 57 38 19
-19 5 0 57 38 19
-30 6 0 83 136 90
-29 6 0 83 136 90
-28 6 0 83 136 90
-27 6 0 83 136 90
-26 6 0 83 136 90
-25 6 0 83 136 90
-24 6 0 83 136 90
-22 -6 1 114 114 114
-18 -6 1 114 114 114
-27 -5 1 114 114 114
-28 -4 1 151 112 58
-26 -4 1 151 112 58
-23 -4 1 86 86 86
-22 -4 1 86 86 86
-24 -3 1 54 54 54
-23 -3 1 86 86 86
-22 -3 1 86 86 86
-21 -3 1 54 54 54
-29 -2 1 99 156 96
-28 -2 1 151 112 58
-26 -2 1 151 112 58
-24 -2 1 86 86 86
-21 -2 1 54 54 54
-30 -1 1 99 156 96
-25 -1 1 125 201 98
-24 -1 1 86 86 86
-23 -1 1 54 54 54
-22 -1 1 86 86 86
-21 -1 1 54 54 54
-30 0 1 99 156 96
-28 0 1 151 112 58
-26 0 1 151 112 58
-24 0 1 83 136 90
-31 1 1 83 136 90
-27 1 1 54 54 54
-24 1 1 83 136 90
-23 1 1 57 38 19
-19 1 1 57 38 19
-31 2 1 83 136 90
-24 2 1 99 156 96
-31 3 1 83 136 90
-24 3 1 83 136 90
-31 4 1 99 156 96
-24 4 1 125 201 98
-30 5 1 125 201 98
-29 5 1 99 156 96
-25 5 1 99 156 96
-24 5 1 83 136 90
-23 5 1 57 38 19
-19 5 1 57 38 19
-28 6 1 99 156 96
-27 6 1 99 156 96
-26 6 1 99 156 96
-28 -5 2 255 225 0
-28 -4 2 151 112 58
-26 -4 2 151 112 58
-24 -3 2 86 86 86
-21 -3 2 54 54 54
-28 -2 2 151 112 58
-26 -2 2 151 112 58
-24 -2 2 86 86 86
-23 -2 2 255 123 0
-22 -2 2 255 123 0
-21 -2 2 86 86 86
-29 -1 2 99 156 96
-25 -1 2 83 136 90
-24 -1 2 86 86 86
-23 -1 2 86 86 86
-22 -1 2 86 86 86
-21 -1 2 86 86 86
-30 0 2 125 201 98
-28 0 2 151 112 58
-26 0 2 151 112 58
-24 0 2 125 201 98
-30 1 2 99 156 96
-27 1 2 54 54 54
-24 1 2 125 201 98
-23 1 2 57 38 19
-22 1 2 57 38 19
-21 1 2 57 38 19
-20 1 2 57 38 19
-19 1 2 57 38 19
-30 2 2 99 156 96
-24 2 2 99 156 96
-23 2 2 57 38 19
-19 2 2 57 38 19
-30 3 2 83 136 90
-24 3 2 99 156 96
-23 3 2 57 38 19
-19 3 2 57 38 19
-30 4 2 83 136 90
-25 4 2 83 136 90
-23 4 2 57 38 19
-19 4 2 57 38 19
-29 5 2 83 136 90
-28 5 2 99 156 96
-27 5 2 83 136 90
-26 5 2 83 136 90
-23 5 2 57 38 19
-22 5 2 57 38 19
-21 5 2 57 38 19
-20 5 2 57 38 19
-19 5 2 57 38 19
-28 -5 3 136 65 46
-26 -5 3 136 65 46
-28 -4 3 181 88 63
-26 -4 3 136 65 46
-28 -3 3 181 88 63
-26 -3 3 136 65 46
-23 -3 3 86 86 86
-22 -3 3 86 86 86
-28 -2 3 136 65 46
-26 -2 3 181 88 63
-24 -2 3 86 86 86
-23 -2 3 86 86 86
-22 -2 3 86 86 86
-21 -2 3 86 86 86
-29 -1 3 99 156 96
-28 -1 3 136 65 46
-26 -1 3 136 65 46
-29 0 3 99 156 96
-28 0 3 136 65 46
-26 0 3 136 65 46
-25 0 3 99 156 96
-30 1 3 99 156 96
-27 1 3 54 54 54
-25 1 3 99 156 96
-23 1 3 80 58 33
-22 1 3 151 112 58
-19 1 3 80 58 33
-30 2 3 125 201 98
-29 2 3 99 156 96
-25 2 3 83 136 90
-19 2 3 151 112 58
-29 3 3 99 156 96
-25 3 3 83 136 90
-29 4 3 125 201 98
-28 4 3 99 156 96
-26 4 3 125 201 98
-23 4 3 151 112 58
-27 5 3 125 201 98
-23 5 3 80 58 33
-20 5 3 151 112 58
-19 5 3 80 58 33
-27 -5 4 181 88 63
-27 -4 4 136 65 46
-27 -3 4 136 65 46
-27 -2 4 181 88 63
-23 -2 4 86 86 86
-22 -2 4 86 86 86
-28 -1 4 125 201 98
-27 -1 4 136 65 46
-26 -1 4 125 201 98
-23 -1 4 86 86 86
-29 0 4 99 156 96
-28 0 4 99 156 96
-27 0 4 136 65 46
-26 0 4 99 156 96
-29 1 4 125 201 98
-25 1 4 125 201 98
-23 1 4 80 58 33
-21 1 4 151 112 58
-19 1 4 80 58 33
-29 2 4 99 156 96
-25 2 4 125 201 98
-28 3 4 99 156 96
-27 3 4 99 156 96
-26 3 4 99 156 96
-23 3 4 151 112 58
-19 3 4 151 112 58
-27 4 4 99 156 96
-23 5 4 80 58 33
-21 5 4 151 112 58
-19 5 4 80 58 33
-23 -2 5 86 86 86
-22 -2 5 135 138 130
-27 0 5 125 201 98
-28 1 5 125 201 98
-27 1 5 99 156 96
-26 1 5 125 201 98
-23 1 5 80 58 33
-20 1 5 151 112 58
-19 1 5 80 58 33
-28 2 5 99 156 96
-27 2 5 125 201 98
-26 2 5 99 156 96
-23 2 5 151 112 58
-19 4 5 151 112 58
-23 5 5 80 58 33
-22 5 5 151 112 58
-19 5 5 80 58 33
-23 -2 6 135 138 130
-22 -2 6 135 138 130
-23 1 6 80 58 33
-19 1 6 80 58 33
-23 5 6 80 58 33
-19 5 6 80 58 33
-23 -2 7 135 138 130
-22 -2 7 135 138 130
-23 1 7 57 38 19
-22 1 7 57 38 19
-21 1 7 57 38 19
-20 1 7 57 38 19
-19 1 7 57 38 19
-23 2 7 57 38 19
-22 2 7 57 38 19
-21 2 7 57 38 19
-20 2 7 57 38 19
-19 2 7 57 38 19
-23 3 7 57 38 19
-22 3 7 57 38 19
-21 3 7 57 38 19
-20 3 7 57 38 19
-19 3 7 57 38 19
-23 4 7 57 38 19
-22 4 7 57 38 19
-21 4 7 57 38 19
-20 4 7 57 38 19
-19 4 7 57 38 19
-23 5 7 57 38 19
-22 5 7 57 38 19
-21 5 7 57 38 19
-20 5 7 57 38 19
-19 5 7 57 38 19
-21 1 8 57 38 19
-23 3 8 57 38 19
-20 3 8 151 112 58
-21 5 8 57 38 19
-21 6 8 80 58 33
-23 0 9 181 88 63
-22 0 9 136 65 46
-21 0 9 181 88 63
-20 0 9 181 88 63
-19 0 9 136 65 46
-21 1 9 57 38 19
-21 2 9 255 225 0
-25 3 9 80 58 33
-24 3 9 80 58 33
-23 3 9 57 38 19
-19 3 9 151 112 58
-21 5 9 57 38 19
-22 6 9 80 58 33
-21 6 9 151 112 58
-20 6 9 80 58 33
-23 1 10 136 65 46
-22 1 10 181 88 63
-21 1 10 136 65 46
-20 1 10 136 65 46
-19 1 10 181 88 63
-21 2 10 57 38 19
-23 3 10 80 58 33
-22 3 10 80 58 33
-21 3 10 57 38 19
-18 3 10 151 112 58
-21 4 10 57 38 19
-21 5 10 57 38 19
-23 6 10 80 58 33
-22 6 10 151 112 58
-21 6 10 114 114 114
-20 6 10 151 112 58
-19 6 10 80 58 33
-23 2 11 181 88 63
-22 2 11 181 88 63
-21 2 11 181 88 63
-20 2 11 136 65 46
-19 2 11 181 88 63
-21 3 11 80 58 33
-20 3 11 80 58 33
-17 3 11 151 112 58
-22 6 11 80 58 33
-21 6 11 151 112 58
-20 6 11 80 58 33
-19 3 12 80 58 33
-18 3 12 80 58 33
-21 6 12 80 58 33
-17 3 13 80 58 33
