ply
format ascii 1.0
comment : MagicaVoxel @ Ephtracy
element vertex 570
property float x
property float y
property float z
property uchar red
property uchar green
property uchar blue
end_header
-16 -7 0 57 38 19
-15 -7 0 57 38 19
-16 -6 0 197 200 189
-15 -6 0 57 38 19
-7 -6 0 135 138 130
-6 -6 0 135 138 130
-4 -6 0 135 138 130
-3 -6 0 135 138 130
-16 -5 0 57 38 19
-15 -5 0 57 38 19
-12 -5 0 197 200 189
-11 -5 0 228 231 218
-7 -5 0 135 138 130
-6 -5 0 197 200 189
-5 -5 0 54 54 54
-4 -5 0 197 200 189
-3 -5 0 197 200 189
-2 -5 0 57 38 19
-13 -4 0 80 58 33
-12 -4 0 197 200 189
-11 -4 0 197 200 189
-10 -4 0 80 58 33
-7 -4 0 135 138 130
-6 -4 0 197 200 189
-5 -4 0 197 200 189
-4 -4 0 197 200 189
-3 -4 0 135 138 130
-12 -3 0 197 200 189
-11 -3 0 197 200 189
-7 -3 0 135 138 130
-6 -3 0 197 200 189
-5 -3 0 197 200 189
-4 -3 0 197 200 189
-3 -3 0 135 138 130
-12 -2 0 197 200 189
-11 -2 0 197 200 189
-7 -2 0 135 138 130
-6 -2 0 197 200 189
-5 -2 0 197 200 189
-4 -2 0 197 200 189
-3 -2 0 135 138 130
-13 -1 0 80 58 33
-10 -1 0 80 58 33
-7 -1 0 135 138 130
-6 -1 0 197 200 189
-5 -1 0 197 200 189
-4 -1 0 197 200 189
-3 -1 0 135 138 130
-7 0 0 135 138 130
-6 0 0 197 200 189
-5 0 0 197 200 189
-4 0 0 197 200 189
-3 0 0 135 138 130
-14 1 0 135 138 130
-12 1 0 135 138 130
-11 1 0 135 138 130
-10 1 0 135 138 130
-9 1 0 135 138 130
-7 1 0 135 138 130
-6 1 0 197 200 189
-5 1 0 197 200 189
-4 1 0 197 200 189
-3 1 0 54 54 54
-14 2 0 135 138 130
-13 2 0 54 54 54
-12 2 0 197 200 189
-11 2 0 197 200 189
-10 2 0 197 200 189
-9 2 0 197 200 189
-8 2 0 54 54 54
-7 2 0 197 200 189
-6 2 0 197 200 189
-5 2 0 197 200 189
-4 2 0 197 200 189
-3 2 0 135 138 130
-14 3 0 135 138 130
-13 3 0 197 200 189
-12 3 0 197 200 189
-11 3 0 197 200 189
-10 3 0 197 200 189
-9 3 0 197 200 189
-8 3 0 197 200 189
-7 3 0 197 200 189
-6 3 0 197 200 189
-5 3 0 197 200 189
-4 3 0 197 200 189
-3 3 0 135 138 130
-15 4 0 80 58 33
-14 4 0 197 200 189
-13 4 0 197 200 189
-12 4 0 197 200 189
-11 4 0 197 200 189
-10 4 0 197 200 189
-9 4 0 197 200 189
-8 4 0 54 54 54
-7 4 0 197 200 189
-6 4 0 197 200 189
-5 4 0 197 200 189
-4 4 0 197 200 189
-3 4 0 197 200 189
-2 4 0 57 38 19
-14 5 0 135 138 130
-13 5 0 197 200 189
-12 5 0 135 138 130
-11 5 0 135 138 130
-10 5 0 135 138 130
-9 5 0 135 138 130
-7 5 0 135 138 130
-6 5 0 135 138 130
-5 5 0 135 138 130
-4 5 0 197 200 189
-3 5 0 135 138 130
-13 6 0 57 38 19
-4 6 0 57 38 19
-2 -7 1 198 147 70
-6 -6 1 197 200 189
-5 -6 1 135 138 130
-4 -6 1 86 86 86
-3 -6 1 197 200 189
-2 -6 1 151 112 58
-7 -5 1 197 200 189
-6 -5 1 197 200 189
-5 -5 1 197 200 189
-4 -5 1 197 200 189
-3 -5 1 197 200 189
-2 -5 1 151 112 58
-13 -4 1 151 112 58
-12 -4 1 197 200 189
-11 -4 1 197 200 189
-10 -4 1 151 112 58
-7 -4 1 197 200 189
-6 -4 1 197 200 189
-5 -4 1 197 200 189
-4 -4 1 197 200 189
-3 -4 1 197 200 189
-2 -4 1 151 112 58
-12 -3 1 228 231 218
-11 -3 1 197 200 189
-7 -3 1 197 200 189
-6 -3 1 197 200 189
-5 -3 1 197 200 189
-4 -3 1 197 200 189
-3 -3 1 197 200 189
-2 -3 1 198 147 70
-12 -2 1 228 231 218
-11 -2 1 197 200 189
-7 -2 1 197 200 189
-6 -2 1 197 200 189
-5 -2 1 197 200 189
-4 -2 1 197 200 189
-3 -2 1 197 200 189
-2 -2 1 151 112 58
-13 -1 1 151 112 58
-12 -1 1 197 200 189
-11 -1 1 228 231 218
-10 -1 1 151 112 58
-7 -1 1 197 200 189
-6 -1 1 197 200 189
-5 -1 1 197 200 189
-4 -1 1 197 200 189
-3 -1 1 197 200 189
-2 -1 1 151 112 58
-7 0 1 241 244 230
-6 0 1 197 200 189
-5 0 1 197 200 189
-4 0 1 197 200 189
-3 0 1 197 200 189
-2 0 1 151 112 58
-14 1 1 86 86 86
-13 1 1 86 86 86
-12 1 1 86 86 86
-11 1 1 197 200 189
-10 1 1 197 200 189
-9 1 1 197 200 189
-8 1 1 86 86 86
-7 1 1 197 200 189
-6 1 1 197 200 189
-5 1 1 197 200 189
-4 1 1 197 200 189
-3 1 1 197 200 189
-2 1 1 151 112 58
-14 2 1 197 200 189
-13 2 1 197 200 189
-12 2 1 197 200 189
-11 2 1 197 200 189
-10 2 1 197 200 189
-9 2 1 197 200 189
-8 2 1 197 200 189
-7 2 1 197 200 189
-6 2 1 197 200 189
-5 2 1 197 200 189
-4 2 1 197 200 189
-3 2 1 197 200 189
-2 2 1 151 112 58
-14 3 1 197 200 189
-13 3 1 197 200 189
-12 3 1 197 200 189
-11 3 1 197 200 189
-10 3 1 197 200 189
-9 3 1 197 200 189
-8 3 1 197 200 189
-7 3 1 197 200 189
-6 3 1 197 200 189
-5 3 1 197 200 189
-4 3 1 197 200 189
-3 3 1 197 200 189
-2 3 1 198 147 70
-15 4 1 151 112 58
-14 4 1 197 200 189
-13 4 1 197 200 189
-12 4 1 197 200 189
-11 4 1 197 200 189
-10 4 1 197 200 189
-9 4 1 197 200 189
-8 4 1 197 200 189
-7 4 1 197 200 189
-6 4 1 197 200 189
-5 4 1 197 200 189
-4 4 1 197 200 189
-3 4 1 197 200 189
-2 4 1 198 147 70
-14 5 1 228 231 218
-13 5 1 197 200 189
-12 5 1 197 200 189
-11 5 1 197 200 189
-10 5 1 197 200 189
-9 5 1 86 86 86
-8 5 1 197 200 189
-7 5 1 197 200 189
-6 5 1 197 200 189
-5 5 1 197 200 189
-4 5 1 197 200 189
-3 5 1 241 244 230
-2 5 1 151 112 58
-13 6 1 80 58 33
-4 6 1 80 58 33
-2 6 1 198 147 70
-6 -6 2 228 231 218
-5 -6 2 228 231 218
-4 -6 2 135 138 130
-12 -5 2 228 231 218
-11 -5 2 197 200 189
-7 -5 2 228 231 218
-6 -5 2 197 200 189
-5 -5 2 197 200 189
-4 -5 2 135 138 130
-3 -5 2 197 200 189
-2 -5 2 80 58 33
-13 -4 2 151 112 58
-12 -4 2 197 200 189
-11 -4 2 197 200 189
-10 -4 2 151 112 58
-7 -4 2 197 200 189
-6 -4 2 197 200 189
-5 -4 2 135 138 130
-4 -4 2 197 200 189
-3 -4 2 228 231 218
-12 -3 2 197 200 189
-11 -3 2 197 200 189
-7 -3 2 197 200 189
-6 -3 2 197 200 189
-5 -3 2 197 200 189
-4 -3 2 197 200 189
-3 -3 2 228 231 218
-12 -2 2 197 200 189
-11 -2 2 228 231 218
-7 -2 2 228 231 218
-6 -2 2 197 200 189
-5 -2 2 197 200 189
-4 -2 2 228 231 218
-3 -2 2 228 231 218
-13 -1 2 151 112 58
-10 -1 2 151 112 58
-7 -1 2 228 231 218
-6 -1 2 197 200 189
-5 -1 2 197 200 189
-4 -1 2 197 200 189
-3 -1 2 228 231 218
-7 0 2 135 138 130
-6 0 2 197 200 189
-5 0 2 197 200 189
-4 0 2 197 200 189
-3 0 2 197 200 189
-14 1 2 197 200 189
-13 1 2 197 200 189
-12 1 2 86 86 86
-11 1 2 197 200 189
-10 1 2 197 200 189
-9 1 2 197 200 189
-8 1 2 197 200 189
-7 1 2 197 200 189
-6 1 2 197 200 189
-5 1 2 197 200 189
-4 1 2 197 200 189
-3 1 2 197 200 189
-14 2 2 86 86 86
-13 2 2 197 200 189
-12 2 2 197 200 189
-11 2 2 197 200 189
-10 2 2 197 200 189
-9 2 2 197 200 189
-8 2 2 197 200 189
-7 2 2 197 200 189
-6 2 2 197 200 189
-5 2 2 197 200 189
-4 2 2 197 200 189
-3 2 2 86 86 86
-14 3 2 197 200 189
-13 3 2 197 200 189
-12 3 2 197 200 189
-11 3 2 197 200 189
-10 3 2 197 200 189
-9 3 2 197 200 189
-8 3 2 197 200 189
-7 3 2 197 200 189
-6 3 2 197 200 189
-5 3 2 197 200 189
-4 3 2 197 200 189
-3 3 2 197 200 189
-15 4 2 198 147 70
-14 4 2 197 200 189
-13 4 2 197 200 189
-12 4 2 197 200 189
-11 4 2 197 200 189
-10 4 2 197 200 189
-9 4 2 197 200 189
-8 4 2 197 200 189
-7 4 2 197 200 189
-6 4 2 197 200 189
-5 4 2 197 200 189
-4 4 2 197 200 189
-3 4 2 197 200 189
-2 4 2 151 112 58
-14 5 2 241 244 230
-13 5 2 197 200 189
-12 5 2 197 200 189
-11 5 2 197 200 189
-10 5 2 135 138 130
-9 5 2 197 200 189
-8 5 2 197 200 189
-7 5 2 197 200 189
-6 5 2 197 200 189
-5 5 2 197 200 189
-4 5 2 197 200 189
-3 5 2 241 244 230
-13 6 2 151 112 58
-4 6 2 151 112 58
-14 1 3 228 231 218
-13 1 3 197 200 189
-12 1 3 135 138 130
-11 1 3 197 200 189
-10 1 3 197 200 189
-9 1 3 197 200 189
-8 1 3 197 200 189
-7 1 3 135 138 130
-6 1 3 197 200 189
-5 1 3 197 200 189
-4 1 3 197 200 189
-3 1 3 197 200 189
-14 2 3 135 138 130
-13 2 3 197 200 189
-12 2 3 197 200 189
-11 2 3 197 200 189
-10 2 3 197 200 189
-9 2 3 197 200 189
-8 2 3 197 200 189
-7 2 3 197 200 189
-6 2 3 197 200 189
-5 2 3 197 200 189
-4 2 3 197 200 189
-3 2 3 197 200 189
-15 3 3 151 112 58
-14 3 3 197 200 189
-13 3 3 197 200 189
-12 3 3 197 200 189
-11 3 3 197 200 189
-10 3 3 197 200 189
-9 3 3 197 200 189
-8 3 3 197 200 189
-7 3 3 197 200 189
-6 3 3 197 200 189
-5 3 3 197 200 189
-4 3 3 197 200 189
-3 3 3 86 86 86
-15 4 3 198 147 70
-14 4 3 197 200 189
-13 4 3 197 200 189
-12 4 3 197 200 189
-11 4 3 197 200 189
-10 4 3 197 200 189
-9 4 3 197 200 189
-8 4 3 197 200 189
-7 4 3 197 200 189
-6 4 3 197 200 189
-5 4 3 197 200 189
-4 4 3 197 200 189
-3 4 3 197 200 189
-15 5 3 151 112 58
-14 5 3 197 200 189
-13 5 3 197 200 189
-12 5 3 197 200 189
-11 5 3 197 200 189
-10 5 3 197 200 189
-9 5 3 197 200 189
-8 5 3 197 200 189
-7 5 3 197 200 189
-6 5 3 197 200 189
-5 5 3 197 200 189
-4 5 3 197 200 189
-3 5 3 197 200 189
-15 6 3 198 147 70
-14 6 3 151 112 58
-13 6 3 198 147 70
-12 6 3 151 112 58
-11 6 3 198 147 70
-10 6 3 151 112 58
-9 6 3 151 112 58
-8 6 3 151 112 58
-7 6 3 151 112 58
-6 6 3 198 147 70
-5 6 3 198 147 70
-4 6 3 198 147 70
-3 6 3 151 112 58
-2 6 3 198 147 70
-13 1 4 197 200 189
-12 1 4 197 200 189
-11 1 4 135 138 130
-10 1 4 197 200 189
-9 1 4 197 200 189
-8 1 4 197 200 189
-7 1 4 197 200 189
-6 1 4 135 138 130
-5 1 4 197 200 189
-4 1 4 197 200 189
-3 1 4 228 231 218
-14 2 4 197 200 189
-13 2 4 197 200 189
-12 2 4 197 200 189
-11 2 4 197 200 189
-10 2 4 197 200 189
-9 2 4 197 200 189
-8 2 4 197 200 189
-7 2 4 197 200 189
-6 2 4 197 200 189
-5 2 4 197 200 189
-4 2 4 197 200 189
-3 2 4 197 200 189
-14 3 4 135 138 130
-13 3 4 197 200 189
-12 3 4 197 200 189
-11 3 4 197 200 189
-10 3 4 197 200 189
-9 3 4 197 200 189
-8 3 4 197 200 189
-7 3 4 197 200 189
-6 3 4 197 200 189
-5 3 4 197 200 189
-4 3 4 197 200 189
-3 3 4 135 138 130
-15 4 4 151 112 58
-14 4 4 197 200 189
-13 4 4 197 200 189
-12 4 4 197 200 189
-11 4 4 197 200 189
-10 4 4 197 200 189
-9 4 4 197 200 189
-8 4 4 197 200 189
-7 4 4 197 200 189
-6 4 4 197 200 189
-5 4 4 197 200 189
-4 4 4 197 200 189
-3 4 4 197 200 189
-14 5 4 228 231 218
-13 5 4 197 200 189
-12 5 4 197 200 189
-11 5 4 197 200 189
-10 5 4 135 138 130
-9 5 4 197 200 189
-8 5 4 197 200 189
-7 5 4 197 200 189
-6 5 4 197 200 189
-5 5 4 135 138 130
-4 5 4 197 200 189
-3 5 4 197 200 189
-13 6 4 151 112 58
-4 6 4 151 112 58
-13 1 5 228 231 218
-12 1 5 197 200 189
-11 1 5 135 138 130
-10 1 5 197 200 189
-9 1 5 197 200 189
-8 1 5 197 200 189
-7 1 5 197 200 189
-6 1 5 135 138 130
-5 1 5 197 200 189
-4 1 5 228 231 218
-14 2 5 228 231 218
-13 2 5 197 200 189
-12 2 5 135 138 130
-11 2 5 197 200 189
-10 2 5 135 138 130
-9 2 5 197 200 189
-8 2 5 197 200 189
-7 2 5 197 200 189
-6 2 5 197 200 189
-5 2 5 197 200 189
-4 2 5 197 200 189
-3 2 5 228 231 218
-14 3 5 197 200 189
-13 3 5 135 138 130
-12 3 5 197 200 189
-11 3 5 197 200 189
-10 3 5 197 200 189
-9 3 5 135 138 130
-8 3 5 197 200 189
-7 3 5 197 200 189
-6 3 5 197 200 189
-5 3 5 135 138 130
-4 3 5 135 138 130
-3 3 5 197 200 189
-14 4 5 228 231 218
-13 4 5 197 200 189
-12 4 5 197 200 189
-11 4 5 197 200 189
-10 4 5 197 200 189
-9 4 5 135 138 130
-8 4 5 197 200 189
-7 4 5 197 200 189
-6 4 5 197 200 189
-5 4 5 197 200 189
-4 4 5 197 200 189
-3 4 5 135 138 130
-12 5 5 228 231 218
-11 5 5 197 200 189
-10 5 5 197 200 189
-9 5 5 228 231 218
-8 5 5 197 200 189
-7 5 5 197 200 189
-6 5 5 197 200 189
-5 5 5 197 200 189
-4 5 5 135 138 130
-14 2 8 151 112 58
-13 2 8 151 112 58
-12 2 8 151 112 58
-14 3 8 151 112 58
-13 3 8 151 112 58
-12 3 8 151 112 58
-14 4 8 151 112 58
-13 4 8 151 112 58
-12 4 8 151 112 58
-13 1 9 197 200 189
-14 2 9 198 147 70
-13 2 9 197 200 189
-12 2 9 198 147 70
-13 3 9 197 200 189
-14 4 9 198 147 70
-13 4 9 197 200 189
-12 4 9 198 147 70
-13 5 9 197 200 189
-13 3 10 135 138 130
-16 3 11 151 112 58
-13 3 11 217 203 181
-15 3 12 151 112 58
-13 3 12 217 203 181
-16 3 13 80 58 33
-14 3 13 151 112 58
-13 3 13 217 203 181
-15 3 14 80 58 33
-14 3 14 80 58 33
-13 3 14 86 86 86
