ply
format ascii 1.0
comment : MagicaVoxel @ Ephtracy
element vertex 1024
property float x
property float y
property float z
property uchar red
property uchar green
property uchar blue
end_header
-13 -26 0 80 58 33
-12 -26 0 198 147 70
-11 -26 0 198 147 70
-10 -26 0 198 147 70
-9 -26 0 198 147 70
-8 -26 0 57 38 19
-7 -26 0 57 38 19
-6 -26 0 198 147 70
-5 -26 0 198 147 70
-4 -26 0 198 147 70
-3 -26 0 198 147 70
-2 -26 0 80 58 33
-13 -25 0 198 147 70
-2 -25 0 198 147 70
-13 -24 0 151 112 58
-2 -24 0 151 112 58
-13 -23 0 198 147 70
-2 -23 0 198 147 70
-13 -22 0 80 58 33
-2 -22 0 80 58 33
-12 -21 0 80 58 33
-3 -21 0 80 58 33
-12 -20 0 80 58 33
-3 -20 0 80 58 33
-12 -19 0 80 58 33
-3 -19 0 80 58 33
-12 -18 0 80 58 33
-3 -18 0 80 58 33
-13 -17 0 80 58 33
-2 -17 0 80 58 33
-13 -16 0 198 147 70
-2 -16 0 198 147 70
-13 -15 0 151 112 58
-2 -15 0 151 112 58
-13 -14 0 151 112 58
-2 -14 0 198 147 70
-13 -26 1 80 58 33
-12 -26 1 198 147 70
-11 -26 1 198 147 70
-10 -26 1 198 147 70
-9 -26 1 198 147 70
-8 -26 1 57 38 19
-7 -26 1 57 38 19
-6 -26 1 198 147 70
-5 -26 1 198 147 70
-4 -26 1 198 147 70
-3 -26 1 198 147 70
-2 -26 1 80 58 33
-13 -25 1 198 147 70
-2 -25 1 198 147 70
-13 -24 1 198 147 70
-2 -24 1 198 147 70
-13 -23 1 198 147 70
-2 -23 1 198 147 70
-13 -22 1 80 58 33
-2 -22 1 80 58 33
-12 -21 1 80 58 33
-3 -21 1 80 58 33
-12 -20 1 80 58 33
-3 -20 1 80 58 33
-12 -19 1 80 58 33
-3 -19 1 80 58 33
-12 -18 1 80 58 33
-3 -18 1 80 58 33
-13 -17 1 80 58 33
-2 -17 1 80 58 33
-13 -16 1 198 147 70
-2 -16 1 198 147 70
-13 -15 1 151 112 58
-2 -15 1 151 112 58
-13 -14 1 151 112 58
-2 -14 1 198 147 70
-13 -26 2 80 58 33
-12 -26 2 198 147 70
-11 -26 2 198 147 70
-10 -26 2 198 147 70
-9 -26 2 198 147 70
-8 -26 2 57 38 19
-7 -26 2 57 38 19
-6 -26 2 198 147 70
-5 -26 2 198 147 70
-4 -26 2 198 147 70
-3 -26 2 198 147 70
-2 -26 2 80 58 33
-13 -25 2 198 147 70
-2 -25 2 198 147 70
-13 -24 2 151 112 58
-2 -24 2 151 112 58
-13 -23 2 198 147 70
-2 -23 2 198 147 70
-13 -22 2 80 58 33
-2 -22 2 80 58 33
-12 -21 2 80 58 33
-3 -21 2 80 58 33
-12 -20 2 80 58 33
-3 -20 2 80 58 33
-12 -19 2 80 58 33
-3 -19 2 80 58 33
-12 -18 2 80 58 33
-3 -18 2 80 58 33
-13 -17 2 80 58 33
-2 -17 2 80 58 33
-13 -16 2 198 147 70
-2 -16 2 198 147 70
-13 -15 2 151 112 58
-2 -15 2 151 112 58
-13 -14 2 151 112 58
-2 -14 2 198 147 70
-13 -26 3 80 58 33
-12 -26 3 80 58 33
-11 -26 3 80 58 33
-10 -26 3 80 58 33
-9 -26 3 80 58 33
-8 -26 3 57 38 19
-7 -26 3 57 38 19
-6 -26 3 80 58 33
-5 -26 3 80 58 33
-4 -26 3 80 58 33
-3 -26 3 80 58 33
-2 -26 3 80 58 33
-13 -25 3 198 147 70
-2 -25 3 198 147 70
-13 -24 3 198 147 70
-2 -24 3 198 147 70
-13 -23 3 151 112 58
-2 -23 3 151 112 58
-13 -22 3 80 58 33
-2 -22 3 80 58 33
-12 -21 3 80 58 33
-3 -21 3 80 58 33
-12 -20 3 80 58 33
-3 -20 3 80 58 33
-12 -19 3 80 58 33
-3 -19 3 80 58 33
-12 -18 3 80 58 33
-3 -18 3 80 58 33
-13 -17 3 80 58 33
-2 -17 3 80 58 33
-13 -16 3 198 147 70
-2 -16 3 198 147 70
-13 -15 3 151 112 58
-2 -15 3 151 112 58
-13 -14 3 151 112 58
-2 -14 3 198 147 70
-13 -26 4 80 58 33
-12 -26 4 198 147 70
-11 -26 4 198 147 70
-10 -26 4 198 147 70
-9 -26 4 198 147 70
-8 -26 4 80 58 33
-7 -26 4 80 58 33
-6 -26 4 198 147 70
-5 -26 4 198 147 70
-4 -26 4 198 147 70
-3 -26 4 198 147 70
-2 -26 4 80 58 33
-13 -25 4 198 147 70
-2 -25 4 198 147 70
-13 -24 4 198 147 70
-2 -24 4 198 147 70
-13 -23 4 198 147 70
-2 -23 4 198 147 70
-13 -22 4 80 58 33
-2 -22 4 80 58 33
-12 -21 4 80 58 33
-3 -21 4 80 58 33
-12 -20 4 80 58 33
-3 -20 4 80 58 33
-12 -19 4 80 58 33
-3 -19 4 80 58 33
-12 -18 4 80 58 33
-3 -18 4 80 58 33
-13 -17 4 80 58 33
-2 -17 4 80 58 33
-13 -16 4 198 147 70
-2 -16 4 198 147 70
-13 -15 4 151 112 58
-2 -15 4 151 112 58
-13 -14 4 151 112 58
-2 -14 4 198 147 70
-13 -26 5 80 58 33
-12 -26 5 198 147 70
-11 -26 5 198 147 70
-10 -26 5 198 147 70
-9 -26 5 80 58 33
-8 -26 5 80 58 33
-7 -26 5 80 58 33
-6 -26 5 80 58 33
-5 -26 5 198 147 70
-4 -26 5 198 147 70
-3 -26 5 198 147 70
-2 -26 5 80 58 33
-13 -25 5 198 147 70
-2 -25 5 198 147 70
-13 -24 5 198 147 70
-2 -24 5 198 147 70
-13 -23 5 151 112 58
-2 -23 5 151 112 58
-13 -22 5 80 58 33
-2 -22 5 80 58 33
-12 -21 5 80 58 33
-3 -21 5 80 58 33
-12 -20 5 80 58 33
-3 -20 5 80 58 33
-12 -19 5 80 58 33
-3 -19 5 80 58 33
-12 -18 5 80 58 33
-3 -18 5 80 58 33
-13 -17 5 80 58 33
-2 -17 5 80 58 33
-13 -16 5 198 147 70
-2 -16 5 198 147 70
-13 -15 5 151 112 58
-2 -15 5 151 112 58
-13 -14 5 151 112 58
-2 -14 5 198 147 70
-13 -26 6 80 58 33
-12 -26 6 198 147 70
-11 -26 6 198 147 70
-10 -26 6 198 147 70
-9 -26 6 57 38 19
-8 -26 6 57 38 19
-7 -26 6 57 38 19
-6 -26 6 57 38 19
-5 -26 6 198 147 70
-4 -26 6 198 147 70
-3 -26 6 198 147 70
-2 -26 6 80 58 33
-13 -25 6 198 147 70
-2 -25 6 198 147 70
-13 -24 6 198 147 70
-2 -24 6 198 147 70
-13 -23 6 198 147 70
-2 -23 6 198 147 70
-13 -22 6 198 147 70
-2 -22 6 198 147 70
-13 -21 6 80 58 33
-2 -21 6 80 58 33
-13 -20 6 80 58 33
-2 -20 6 80 58 33
-13 -19 6 80 58 33
-2 -19 6 80 58 33
-13 -18 6 80 58 33
-2 -18 6 80 58 33
-13 -17 6 198 147 70
-2 -17 6 198 147 70
-13 -16 6 198 147 70
-2 -16 6 198 147 70
-13 -15 6 198 147 70
-2 -15 6 198 147 70
-13 -14 6 198 147 70
-2 -14 6 198 147 70
-13 -26 7 80 58 33
-12 -26 7 198 147 70
-11 -26 7 198 147 70
-10 -26 7 198 147 70
-9 -26 7 198 147 70
-8 -26 7 57 38 19
-7 -26 7 57 38 19
-6 -26 7 198 147 70
-5 -26 7 198 147 70
-4 -26 7 198 147 70
-3 -26 7 198 147 70
-2 -26 7 80 58 33
-13 -25 7 151 112 58
-2 -25 7 151 112 58
-13 -24 7 151 112 58
-2 -24 7 151 112 58
-13 -23 7 151 112 58
-2 -23 7 151 112 58
-13 -22 7 151 112 58
-2 -22 7 151 112 58
-13 -21 7 151 112 58
-2 -21 7 151 112 58
-13 -20 7 151 112 58
-2 -20 7 151 112 58
-13 -19 7 151 112 58
-2 -19 7 151 112 58
-13 -18 7 151 112 58
-2 -18 7 151 112 58
-13 -17 7 151 112 58
-2 -17 7 151 112 58
-13 -16 7 151 112 58
-2 -16 7 151 112 58
-13 -15 7 151 112 58
-2 -15 7 151 112 58
-13 -14 7 151 112 58
-2 -14 7 151 112 58
-13 -27 8 80 58 33
-2 -27 8 80 58 33
-13 -26 8 57 38 19
-12 -26 8 151 112 58
-11 -26 8 198 147 70
-10 -26 8 198 147 70
-9 -26 8 198 147 70
-8 -26 8 198 147 70
-7 -26 8 198 147 70
-6 -26 8 198 147 70
-5 -26 8 198 147 70
-4 -26 8 198 147 70
-3 -26 8 151 112 58
-2 -26 8 57 38 19
-13 -25 8 57 38 19
-2 -25 8 57 38 19
-13 -24 8 80 58 33
-2 -24 8 80 58 33
-13 -23 8 57 38 19
-2 -23 8 57 38 19
-13 -22 8 57 38 19
-2 -22 8 57 38 19
-13 -21 8 57 38 19
-2 -21 8 57 38 19
-13 -20 8 57 38 19
-2 -20 8 57 38 19
-13 -19 8 57 38 19
-2 -19 8 57 38 19
-13 -18 8 80 58 33
-2 -18 8 80 58 33
-13 -17 8 80 58 33
-2 -17 8 80 58 33
-13 -16 8 57 38 19
-2 -16 8 57 38 19
-13 -15 8 57 38 19
-2 -15 8 57 38 19
-13 -14 8 57 38 19
-2 -14 8 57 38 19
-12 -27 9 80 58 33
-3 -27 9 80 58 33
-12 -26 9 57 38 19
-11 -26 9 57 38 19
-10 -26 9 198 147 70
-9 -26 9 198 147 70
-8 -26 9 198 147 70
-7 -26 9 198 147 70
-6 -26 9 198 147 70
-5 -26 9 198 147 70
-4 -26 9 57 38 19
-3 -26 9 57 38 19
-12 -25 9 80 58 33
-11 -25 9 80 58 33
-10 -25 9 80 58 33
-9 -25 9 80 58 33
-8 -25 9 80 58 33
-7 -25 9 80 58 33
-6 -25 9 80 58 33
-5 -25 9 80 58 33
-4 -25 9 80 58 33
-3 -25 9 80 58 33
-12 -24 9 57 38 19
-11 -24 9 80 58 33
-10 -24 9 80 58 33
-9 -24 9 80 58 33
-8 -24 9 80 58 33
-7 -24 9 80 58 33
-6 -24 9 80 58 33
-5 -24 9 80 58 33
-4 -24 9 80 58 33
-3 -24 9 57 38 19
-12 -23 9 57 38 19
-3 -23 9 57 38 19
-12 -22 9 80 58 33
-3 -22 9 80 58 33
-12 -21 9 57 38 19
-3 -21 9 57 38 19
-12 -20 9 57 38 19
-3 -20 9 57 38 19
-12 -19 9 57 38 19
-3 -19 9 57 38 19
-12 -18 9 80 58 33
-3 -18 9 80 58 33
-12 -17 9 57 38 19
-3 -17 9 57 38 19
-12 -16 9 80 58 33
-3 -16 9 80 58 33
-12 -15 9 57 38 19
-3 -15 9 57 38 19
-12 -14 9 57 38 19
-3 -14 9 57 38 19
-11 -27 10 80 58 33
-4 -27 10 80 58 33
-11 -26 10 57 38 19
-10 -26 10 80 58 33
-9 -26 10 80 58 33
-8 -26 10 80 58 33
-7 -26 10 80 58 33
-6 -26 10 80 58 33
-5 -26 10 80 58 33
-4 -26 10 57 38 19
-11 -25 10 80 58 33
-10 -25 10 80 58 33
-9 -25 10 80 58 33
-8 -25 10 80 58 33
-7 -25 10 80 58 33
-6 -25 10 80 58 33
-5 -25 10 80 58 33
-4 -25 10 80 58 33
-11 -24 10 57 38 19
-10 -24 10 80 58 33
-9 -24 10 80 58 33
-8 -24 10 80 58 33
-7 -24 10 80 58 33
-6 -24 10 80 58 33
-5 -24 10 80 58 33
-4 -24 10 57 38 19
-11 -23 10 57 38 19
-10 -23 10 80 58 33
-9 -23 10 80 58 33
-8 -23 10 80 58 33
-7 -23 10 80 58 33
-6 -23 10 80 58 33
-5 -23 10 80 58 33
-4 -23 10 57 38 19
-11 -22 10 80 58 33
-4 -22 10 80 58 33
-11 -21 10 57 38 19
-4 -21 10 57 38 19
-11 -20 10 57 38 19
-4 -20 10 57 38 19
-11 -19 10 57 38 19
-4 -19 10 57 38 19
-11 -18 10 80 58 33
-4 -18 10 80 58 33
-11 -17 10 80 58 33
-4 -17 10 80 58 33
-11 -16 10 80 58 33
-4 -16 10 80 58 33
-11 -15 10 57 38 19
-4 -15 10 57 38 19
-11 -14 10 57 38 19
-4 -14 10 57 38 19
-11 -27 11 57 38 19
-8 -27 11 80 58 33
-7 -27 11 80 58 33
-4 -27 11 57 38 19
-11 -26 11 57 38 19
-10 -26 11 57 38 19
-9 -26 11 198 147 70
-8 -26 11 198 147 70
-7 -26 11 198 147 70
-6 -26 11 198 147 70
-5 -26 11 57 38 19
-4 -26 11 57 38 19
-11 -25 11 57 38 19
-10 -25 11 80 58 33
-9 -25 11 80 58 33
-8 -25 11 80 58 33
-7 -25 11 80 58 33
-6 -25 11 80 58 33
-5 -25 11 80 58 33
-4 -25 11 57 38 19
-11 -24 11 80 58 33
-10 -24 11 80 58 33
-9 -24 11 80 58 33
-8 -24 11 80 58 33
-7 -24 11 80 58 33
-6 -24 11 80 58 33
-5 -24 11 80 58 33
-4 -24 11 80 58 33
-11 -23 11 57 38 19
-10 -23 11 80 58 33
-9 -23 11 80 58 33
-8 -23 11 80 58 33
-7 -23 11 80 58 33
-6 -23 11 80 58 33
-5 -23 11 80 58 33
-4 -23 11 57 38 19
-11 -22 11 57 38 19
-10 -22 11 57 38 19
-9 -22 11 80 58 33
-8 -22 11 80 58 33
-7 -22 11 80 58 33
-6 -22 11 80 58 33
-5 -22 11 57 38 19
-4 -22 11 57 38 19
-11 -21 11 80 58 33
-10 -21 11 80 58 33
-5 -21 11 80 58 33
-4 -21 11 80 58 33
-11 -20 11 57 38 19
-10 -20 11 80 58 33
-5 -20 11 80 58 33
-4 -20 11 57 38 19
-11 -19 11 80 58 33
-10 -19 11 80 58 33
-5 -19 11 80 58 33
-4 -19 11 80 58 33
-11 -18 11 80 58 33
-10 -18 11 80 58 33
-5 -18 11 80 58 33
-4 -18 11 80 58 33
-11 -17 11 80 58 33
-10 -17 11 80 58 33
-5 -17 11 80 58 33
-4 -17 11 80 58 33
-11 -16 11 57 38 19
-10 -16 11 80 58 33
-5 -16 11 80 58 33
-4 -16 11 57 38 19
-11 -15 11 57 38 19
-10 -15 11 80 58 33
-5 -15 11 80 58 33
-4 -15 11 57 38 19
-11 -14 11 57 38 19
-10 -14 11 80 58 33
-5 -14 11 80 58 33
-4 -14 11 57 38 19
-10 -27 12 57 38 19
-8 -27 12 80 58 33
-7 -27 12 80 58 33
-5 -27 12 57 38 19
-10 -26 12 57 38 19
-9 -26 12 198 147 70
-8 -26 12 198 147 70
-7 -26 12 198 147 70
-6 -26 12 198 147 70
-5 -26 12 57 38 19
-10 -25 12 80 58 33
-9 -25 12 80 58 33
-8 -25 12 80 58 33
-7 -25 12 80 58 33
-6 -25 12 80 58 33
-5 -25 12 80 58 33
-10 -24 12 57 38 19
-9 -24 12 80 58 33
-8 -24 12 80 58 33
-7 -24 12 80 58 33
-6 -24 12 80 58 33
-5 -24 12 57 38 19
-10 -23 12 57 38 19
-9 -23 12 80 58 33
-8 -23 12 80 58 33
-7 -23 12 80 58 33
-6 -23 12 80 58 33
-5 -23 12 57 38 19
-10 -22 12 57 38 19
-9 -22 12 80 58 33
-8 -22 12 80 58 33
-7 -22 12 80 58 33
-6 -22 12 80 58 33
-5 -22 12 57 38 19
-10 -21 12 80 58 33
-5 -21 12 80 58 33
-11 -20 12 198 147 70
-10 -20 12 80 58 33
-5 -20 12 80 58 33
-4 -20 12 198 147 70
-11 -19 12 151 112 58
-10 -19 12 80 58 33
-5 -19 12 80 58 33
-4 -19 12 151 112 58
-10 -18 12 80 58 33
-5 -18 12 80 58 33
-10 -17 12 57 38 19
-9 -17 12 80 58 33
-8 -17 12 80 58 33
-7 -17 12 80 58 33
-6 -17 12 80 58 33
-5 -17 12 57 38 19
-10 -16 12 80 58 33
-9 -16 12 80 58 33
-8 -16 12 80 58 33
-7 -16 12 80 58 33
-6 -16 12 80 58 33
-5 -16 12 80 58 33
-10 -15 12 57 38 19
-9 -15 12 80 58 33
-8 -15 12 80 58 33
-7 -15 12 80 58 33
-6 -15 12 80 58 33
-5 -15 12 57 38 19
-10 -14 12 57 38 19
-9 -14 12 80 58 33
-8 -14 12 80 58 33
-7 -14 12 80 58 33
-6 -14 12 80 58 33
-5 -14 12 57 38 19
-10 -27 13 80 58 33
-5 -27 13 80 58 33
-10 -26 13 57 38 19
-9 -26 13 151 112 58
-8 -26 13 198 147 70
-7 -26 13 198 147 70
-6 -26 13 151 112 58
-5 -26 13 57 38 19
-10 -25 13 80 58 33
-9 -25 13 80 58 33
-8 -25 13 80 58 33
-7 -25 13 80 58 33
-6 -25 13 80 58 33
-5 -25 13 80 58 33
-10 -24 13 57 38 19
-9 -24 13 80 58 33
-8 -24 13 80 58 33
-7 -24 13 80 58 33
-6 -24 13 80 58 33
-5 -24 13 57 38 19
-10 -23 13 57 38 19
-9 -23 13 80 58 33
-8 -23 13 80 58 33
-7 -23 13 80 58 33
-6 -23 13 80 58 33
-5 -23 13 57 38 19
-10 -22 13 80 58 33
-9 -22 13 80 58 33
-8 -22 13 80 58 33
-7 -22 13 80 58 33
-6 -22 13 80 58 33
-5 -22 13 80 58 33
-10 -21 13 151 112 58
-5 -21 13 151 112 58
-11 -20 13 151 112 58
-10 -20 13 151 112 58
-5 -20 13 151 112 58
-4 -20 13 151 112 58
-11 -19 13 151 112 58
-10 -19 13 80 58 33
-5 -19 13 80 58 33
-4 -19 13 151 112 58
-10 -18 13 80 58 33
-5 -18 13 80 58 33
-10 -17 13 57 38 19
-9 -17 13 80 58 33
-8 -17 13 80 58 33
-7 -17 13 80 58 33
-6 -17 13 80 58 33
-5 -17 13 57 38 19
-10 -16 13 57 38 19
-9 -16 13 80 58 33
-8 -16 13 80 58 33
-7 -16 13 80 58 33
-6 -16 13 80 58 33
-5 -16 13 57 38 19
-10 -15 13 57 38 19
-9 -15 13 57 38 19
-8 -15 13 80 58 33
-7 -15 13 80 58 33
-6 -15 13 57 38 19
-5 -15 13 57 38 19
-10 -14 13 57 38 19
-9 -14 13 80 58 33
-8 -14 13 80 58 33
-7 -14 13 80 58 33
-6 -14 13 80 58 33
-5 -14 13 57 38 19
-9 -27 14 80 58 33
-6 -27 14 80 58 33
-9 -26 14 80 58 33
-8 -26 14 198 147 70
-7 -26 14 198 147 70
-6 -26 14 80 58 33
-9 -25 14 57 38 19
-8 -25 14 80 58 33
-7 -25 14 80 58 33
-6 -25 14 57 38 19
-9 -24 14 57 38 19
-8 -24 14 80 58 33
-7 -24 14 80 58 33
-6 -24 14 57 38 19
-9 -23 14 57 38 19
-8 -23 14 80 58 33
-7 -23 14 80 58 33
-6 -23 14 57 38 19
-9 -22 14 80 58 33
-8 -22 14 80 58 33
-7 -22 14 80 58 33
-6 -22 14 80 58 33
-10 -21 14 151 112 58
-5 -21 14 151 112 58
-11 -20 14 151 112 58
-10 -20 14 151 112 58
-5 -20 14 151 112 58
-4 -20 14 151 112 58
-11 -19 14 198 147 70
-10 -19 14 80 58 33
-5 -19 14 80 58 33
-4 -19 14 198 147 70
-10 -18 14 198 147 70
-5 -18 14 198 147 70
-9 -17 14 80 58 33
-8 -17 14 80 58 33
-7 -17 14 80 58 33
-6 -17 14 80 58 33
-9 -16 14 80 58 33
-8 -16 14 80 58 33
-7 -16 14 80 58 33
-6 -16 14 80 58 33
-9 -15 14 57 38 19
-8 -15 14 80 58 33
-7 -15 14 80 58 33
-6 -15 14 80 58 33
-9 -14 14 57 38 19
-8 -14 14 80 58 33
-7 -14 14 80 58 33
-6 -14 14 80 58 33
-9 -27 15 80 58 33
-6 -27 15 80 58 33
-9 -26 15 57 38 19
-8 -26 15 151 112 58
-7 -26 15 151 112 58
-6 -26 15 57 38 19
-9 -25 15 57 38 19
-8 -25 15 80 58 33
-7 -25 15 80 58 33
-6 -25 15 57 38 19
-9 -24 15 80 58 33
-8 -24 15 80 58 33
-7 -24 15 80 58 33
-6 -24 15 80 58 33
-9 -23 15 57 38 19
-8 -23 15 80 58 33
-7 -23 15 80 58 33
-6 -23 15 57 38 19
-9 -22 15 80 58 33
-8 -22 15 80 58 33
-7 -22 15 80 58 33
-6 -22 15 80 58 33
-10 -21 15 151 112 58
-5 -21 15 151 112 58
-11 -20 15 151 112 58
-10 -20 15 151 112 58
-5 -20 15 151 112 58
-4 -20 15 151 112 58
-11 -19 15 151 112 58
-10 -19 15 80 58 33
-5 -19 15 80 58 33
-4 -19 15 151 112 58
-10 -18 15 198 147 70
-5 -18 15 198 147 70
-9 -17 15 80 58 33
-8 -17 15 80 58 33
-7 -17 15 80 58 33
-6 -17 15 80 58 33
-9 -16 15 80 58 33
-8 -16 15 80 58 33
-7 -16 15 80 58 33
-6 -16 15 80 58 33
-9 -15 15 57 38 19
-8 -15 15 80 58 33
-7 -15 15 80 58 33
-6 -15 15 80 58 33
-9 -14 15 57 38 19
-8 -14 15 57 38 19
-7 -14 15 57 38 19
-6 -14 15 57 38 19
-8 -27 16 57 38 19
-7 -27 16 57 38 19
-8 -26 16 80 58 33
-7 -26 16 80 58 33
-8 -25 16 80 58 33
-7 -25 16 80 58 33
-8 -24 16 80 58 33
-7 -24 16 80 58 33
-8 -23 16 80 58 33
-7 -23 16 80 58 33
-9 -22 16 151 112 58
-8 -22 16 80 58 33
-7 -22 16 80 58 33
-6 -22 16 151 112 58
-10 -21 16 198 147 70
-5 -21 16 198 147 70
-11 -20 16 151 112 58
-10 -20 16 198 147 70
-5 -20 16 198 147 70
-4 -20 16 151 112 58
-11 -19 16 151 112 58
-10 -19 16 198 147 70
-5 -19 16 198 147 70
-4 -19 16 151 112 58
-10 -18 16 198 147 70
-5 -18 16 198 147 70
-9 -17 16 151 112 58
-8 -17 16 80 58 33
-7 -17 16 80 58 33
-6 -17 16 151 112 58
-8 -16 16 80 58 33
-7 -16 16 80 58 33
-8 -15 16 57 38 19
-7 -15 16 80 58 33
-8 -14 16 57 38 19
-7 -14 16 57 38 19
-8 -27 17 80 58 33
-7 -27 17 80 58 33
-8 -26 17 80 58 33
-7 -26 17 80 58 33
-8 -25 17 80 58 33
-7 -25 17 80 58 33
-8 -24 17 80 58 33
-7 -24 17 80 58 33
-8 -23 17 80 58 33
-7 -23 17 80 58 33
-9 -22 17 198 147 70
-8 -22 17 80 58 33
-7 -22 17 80 58 33
-6 -22 17 198 147 70
-10 -21 17 198 147 70
-5 -21 17 198 147 70
-11 -20 17 198 147 70
-10 -20 17 198 147 70
-5 -20 17 198 147 70
-4 -20 17 198 147 70
-11 -19 17 198 147 70
-10 -19 17 198 147 70
-5 -19 17 198 147 70
-4 -19 17 198 147 70
-10 -18 17 198 147 70
-5 -18 17 198 147 70
-9 -17 17 198 147 70
-8 -17 17 80 58 33
-7 -17 17 80 58 33
-6 -17 17 198 147 70
-8 -16 17 80 58 33
-7 -16 17 80 58 33
-8 -15 17 57 38 19
-7 -15 17 80 58 33
-8 -14 17 57 38 19
-7 -14 17 80 58 33
-8 -23 18 57 38 19
-7 -23 18 57 38 19
-9 -22 18 151 112 58
-8 -22 18 80 58 33
-7 -22 18 80 58 33
-6 -22 18 151 112 58
-10 -21 18 151 112 58
-5 -21 18 151 112 58
-10 -20 18 248 233 68
-5 -20 18 248 233 68
-10 -19 18 248 233 68
-5 -19 18 248 233 68
-10 -18 18 198 147 70
-5 -18 18 198 147 70
-9 -17 18 151 112 58
-8 -17 18 198 147 70
-7 -17 18 198 147 70
-6 -17 18 151 112 58
-8 -16 18 57 38 19
-7 -16 18 57 38 19
-8 -23 19 80 58 33
-7 -23 19 80 58 33
-9 -22 19 198 147 70
-8 -22 19 80 58 33
-7 -22 19 80 58 33
-6 -22 19 198 147 70
-10 -21 19 198 147 70
-5 -21 19 198 147 70
-10 -20 19 248 233 68
-5 -20 19 248 233 68
-10 -19 19 248 233 68
-5 -19 19 248 233 68
-10 -18 19 198 147 70
-5 -18 19 198 147 70
-9 -17 19 198 147 70
-8 -17 19 198 147 70
-7 -17 19 198 147 70
-6 -17 19 198 147 70
-8 -16 19 57 38 19
-7 -16 19 57 38 19
-8 -23 20 57 38 19
-7 -23 20 57 38 19
-9 -22 20 198 147 70
-8 -22 20 80 58 33
-7 -22 20 80 58 33
-6 -22 20 198 147 70
-10 -21 20 198 147 70
-5 -21 20 198 147 70
-11 -20 20 198 147 70
-10 -20 20 198 147 70
-5 -20 20 198 147 70
-4 -20 20 198 147 70
-11 -19 20 198 147 70
-10 -19 20 198 147 70
-5 -19 20 198 147 70
-4 -19 20 198 147 70
-10 -18 20 151 112 58
-5 -18 20 151 112 58
-9 -17 20 198 147 70
-8 -17 20 198 147 70
-7 -17 20 198 147 70
-6 -17 20 198 147 70
-8 -16 20 57 38 19
-7 -16 20 57 38 19
-8 -23 21 80 58 33
-7 -23 21 80 58 33
-9 -22 21 80 58 33
-8 -22 21 80 58 33
-7 -22 21 80 58 33
-6 -22 21 80 58 33
-10 -21 21 80 58 33
-5 -21 21 80 58 33
-11 -20 21 80 58 33
-10 -20 21 80 58 33
-5 -20 21 80 58 33
-4 -20 21 80 58 33
-11 -19 21 80 58 33
-10 -19 21 80 58 33
-5 -19 21 80 58 33
-4 -19 21 80 58 33
-10 -18 21 80 58 33
-5 -18 21 80 58 33
-9 -17 21 80 58 33
-8 -17 21 198 147 70
-7 -17 21 198 147 70
-6 -17 21 80 58 33
-8 -16 21 57 38 19
-7 -16 21 57 38 19
-8 -22 22 198 147 70
-7 -22 22 198 147 70
-9 -21 22 198 147 70
-8 -21 22 198 147 70
-7 -21 22 198 147 70
-6 -21 22 198 147 70
-10 -20 22 198 147 70
-9 -20 22 198 147 70
-8 -20 22 198 147 70
-7 -20 22 198 147 70
-6 -20 22 198 147 70
-5 -20 22 198 147 70
-10 -19 22 198 147 70
-9 -19 22 198 147 70
-8 -19 22 198 147 70
-7 -19 22 198 147 70
-6 -19 22 198 147 70
-5 -19 22 198 147 70
-9 -18 22 151 112 58
-8 -18 22 198 147 70
-7 -18 22 198 147 70
-6 -18 22 151 112 58
-8 -17 22 198 147 70
-7 -17 22 198 147 70
-9 -23 23 136 65 46
-8 -23 23 136 65 46
-7 -23 23 136 65 46
-6 -23 23 136 65 46
-10 -22 23 136 65 46
-9 -22 23 136 65 46
-8 -22 23 136 65 46
-7 -22 23 136 65 46
-6 -22 23 136 65 46
-5 -22 23 136 65 46
-11 -21 23 136 65 46
-10 -21 23 136 65 46
-9 -21 23 136 65 46
-8 -21 23 136 65 46
-7 -21 23 136 65 46
-6 -21 23 136 65 46
-5 -21 23 136 65 46
-4 -21 23 136 65 46
-11 -20 23 181 88 63
-10 -20 23 181 88 63
-9 -20 23 136 65 46
-8 -20 23 136 65 46
-7 -20 23 136 65 46
-6 -20 23 136 65 46
-5 -20 23 181 88 63
-4 -20 23 181 88 63
-11 -19 23 136 65 46
-10 -19 23 136 65 46
-9 -19 23 136 65 46
-8 -19 23 136 65 46
-7 -19 23 136 65 46
-6 -19 23 136 65 46
-5 -19 23 136 65 46
-4 -19 23 136 65 46
-11 -18 23 136 65 46
-10 -18 23 181 88 63
-9 -18 23 136 65 46
-8 -18 23 136 65 46
-7 -18 23 136 65 46
-6 -18 23 136 65 46
-5 -18 23 181 88 63
-4 -18 23 136 65 46
-10 -17 23 136 65 46
-9 -17 23 181 88 63
-8 -17 23 136 65 46
-7 -17 23 136 65 46
-6 -17 23 181 88 63
-5 -17 23 136 65 46
-9 -16 23 136 65 46
-8 -16 23 136 65 46
-7 -16 23 136 65 46
-6 -16 23 136 65 46
-8 -22 24 136 65 46
-7 -22 24 136 65 46
-9 -21 24 136 65 46
-8 -21 24 181 88 63
-7 -21 24 181 88 63
-6 -21 24 136 65 46
-10 -20 24 136 65 46
-9 -20 24 136 65 46
-8 -20 24 136 65 46
-7 -20 24 136 65 46
-6 -20 24 136 65 46
-5 -20 24 136 65 46
-10 -19 24 136 65 46
-9 -19 24 136 65 46
-8 -19 24 136 65 46
-7 -19 24 136 65 46
-6 -19 24 136 65 46
-5 -19 24 136 65 46
-9 -18 24 136 65 46
-8 -18 24 136 65 46
-7 -18 24 136 65 46
-6 -18 24 136 65 46
-8 -17 24 181 88 63
-7 -17 24 181 88 63
-8 -21 25 181 88 63
-7 -21 25 181 88 63
-9 -20 25 181 88 63
-8 -20 25 136 65 46
-7 -20 25 136 65 46
-6 -20 25 181 88 63
-9 -19 25 181 88 63
-8 -19 25 136 65 46
-7 -19 25 136 65 46
-6 -19 25 181 88 63
-8 -18 25 181 88 63
-7 -18 25 181 88 63
-8 -20 26 136 65 46
-7 -20 26 136 65 46
-8 -19 26 181 88 63
-7 -19 26 181 88 63
-8 -20 27 181 88 63
-7 -20 27 181 88 63
-8 -19 27 181 88 63
-7 -19 27 181 88 63
