ply
format ascii 1.0
comment : MagicaVoxel @ Ephtracy
element vertex 539
property float x
property float y
property float z
property uchar red
property uchar green
property uchar blue
end_header
-4 -6 0 57 38 19
-3 -6 0 198 147 70
-2 -6 0 198 147 70
-1 -6 0 198 147 70
0 -6 0 57 38 19
1 -6 0 198 147 70
2 -6 0 198 147 70
3 -6 0 198 147 70
4 -6 0 57 38 19
-4 -5 0 198 147 70
4 -5 0 198 147 70
-4 -4 0 198 147 70
4 -4 0 198 147 70
-4 -3 0 198 147 70
4 -3 0 198 147 70
-4 -2 0 57 38 19
4 -2 0 57 38 19
-4 -1 0 198 147 70
4 -1 0 198 147 70
-4 0 0 198 147 70
4 0 0 198 147 70
-4 1 0 57 38 19
4 1 0 57 38 19
-4 2 0 198 147 70
4 2 0 198 147 70
-4 3 0 198 147 70
4 3 0 198 147 70
-4 4 0 198 147 70
4 4 0 198 147 70
-4 5 0 57 38 19
-3 5 0 198 147 70
-2 5 0 198 147 70
-1 5 0 151 112 58
0 5 0 54 54 54
1 5 0 151 112 58
2 5 0 198 147 70
3 5 0 198 147 70
4 5 0 57 38 19
-1 6 0 57 38 19
1 6 0 57 38 19
-4 -6 1 80 58 33
-3 -6 1 198 147 70
-1 -6 1 198 147 70
0 -6 1 80 58 33
1 -6 1 198 147 70
3 -6 1 198 147 70
4 -6 1 80 58 33
-4 -5 1 198 147 70
-2 -5 1 54 54 54
2 -5 1 255 225 0
4 -5 1 198 147 70
-3 -4 1 54 54 54
3 -4 1 255 225 0
-4 -3 1 198 147 70
4 -3 1 198 147 70
-4 -2 1 80 58 33
4 -2 1 80 58 33
-4 -1 1 198 147 70
4 -1 1 198 147 70
-4 0 1 198 147 70
4 0 1 198 147 70
-4 1 1 80 58 33
4 1 1 80 58 33
-4 2 1 198 147 70
4 2 1 198 147 70
-3 3 1 54 54 54
3 3 1 54 54 54
-4 4 1 198 147 70
4 4 1 198 147 70
-4 5 1 80 58 33
-3 5 1 198 147 70
-2 5 1 198 147 70
-1 5 1 151 112 58
0 5 1 54 54 54
1 5 1 151 112 58
2 5 1 198 147 70
3 5 1 198 147 70
4 5 1 80 58 33
-1 6 1 80 58 33
1 6 1 80 58 33
-4 -6 2 80 58 33
-3 -6 2 80 58 33
-2 -6 2 80 58 33
-1 -6 2 80 58 33
0 -6 2 80 58 33
1 -6 2 80 58 33
2 -6 2 80 58 33
3 -6 2 80 58 33
4 -6 2 80 58 33
-4 -5 2 80 58 33
4 -5 2 80 58 33
-4 -4 2 80 58 33
4 -4 2 80 58 33
-4 -3 2 80 58 33
4 -3 2 80 58 33
-4 -2 2 80 58 33
4 -2 2 80 58 33
-4 -1 2 80 58 33
4 -1 2 80 58 33
-4 0 2 80 58 33
4 0 2 80 58 33
-4 1 2 80 58 33
4 1 2 80 58 33
-4 2 2 80 58 33
4 2 2 80 58 33
-4 3 2 80 58 33
4 3 2 80 58 33
-4 4 2 80 58 33
4 4 2 80 58 33
-4 5 2 80 58 33
-3 5 2 80 58 33
-2 5 2 151 112 58
-1 5 2 151 112 58
0 5 2 80 58 33
1 5 2 151 112 58
2 5 2 151 112 58
3 5 2 80 58 33
4 5 2 80 58 33
-1 6 2 136 65 46
1 6 2 181 88 63
-4 -6 3 80 58 33
-3 -6 3 198 147 70
-2 -6 3 198 147 70
-1 -6 3 198 147 70
0 -6 3 80 58 33
1 -6 3 198 147 70
2 -6 3 198 147 70
3 -6 3 198 147 70
4 -6 3 80 58 33
-4 -5 3 198 147 70
4 -5 3 198 147 70
-4 -4 3 198 147 70
4 -4 3 198 147 70
-4 -3 3 198 147 70
4 -3 3 198 147 70
-4 -2 3 80 58 33
4 -2 3 80 58 33
-4 -1 3 198 147 70
4 -1 3 198 147 70
-4 0 3 198 147 70
4 0 3 198 147 70
-4 1 3 80 58 33
4 1 3 80 58 33
-4 2 3 198 147 70
4 2 3 198 147 70
-4 3 3 198 147 70
4 3 3 198 147 70
-4 4 3 198 147 70
4 4 3 198 147 70
-4 5 3 80 58 33
-3 5 3 198 147 70
-2 5 3 198 147 70
-1 5 3 198 147 70
0 5 3 151 112 58
1 5 3 198 147 70
2 5 3 198 147 70
3 5 3 198 147 70
4 5 3 80 58 33
0 6 3 181 88 63
-5 -6 4 80 58 33
-4 -6 4 80 58 33
-3 -6 4 198 147 70
-1 -6 4 198 147 70
0 -6 4 80 58 33
1 -6 4 198 147 70
3 -6 4 198 147 70
4 -6 4 80 58 33
-5 -5 4 151 112 58
-4 -5 4 151 112 58
-2 -5 4 54 54 54
2 -5 4 54 54 54
4 -5 4 198 147 70
-5 -4 4 151 112 58
-4 -4 4 151 112 58
3 -4 4 54 54 54
-5 -3 4 151 112 58
-4 -3 4 151 112 58
4 -3 4 198 147 70
-5 -2 4 80 58 33
-4 -2 4 80 58 33
4 -2 4 80 58 33
-4 -1 4 198 147 70
4 -1 4 198 147 70
-4 0 4 198 147 70
4 0 4 198 147 70
-4 1 4 80 58 33
4 1 4 80 58 33
-4 2 4 198 147 70
4 2 4 198 147 70
-3 3 4 255 225 0
3 3 4 255 225 0
-4 4 4 198 147 70
-2 4 4 255 225 0
2 4 4 255 225 0
4 4 4 198 147 70
-4 5 4 80 58 33
-3 5 4 198 147 70
-1 5 4 198 147 70
0 5 4 151 112 58
1 5 4 198 147 70
3 5 4 198 147 70
4 5 4 80 58 33
-6 -6 5 80 58 33
-5 -6 5 151 112 58
-4 -6 5 57 38 19
-3 -6 5 198 147 70
-2 -6 5 198 147 70
-1 -6 5 198 147 70
0 -6 5 80 58 33
1 -6 5 198 147 70
2 -6 5 198 147 70
3 -6 5 198 147 70
4 -6 5 57 38 19
-6 -5 5 80 58 33
4 -5 5 151 112 58
-6 -4 5 80 58 33
4 -4 5 151 112 58
-6 -3 5 80 58 33
4 -3 5 151 112 58
-6 -2 5 80 58 33
-5 -2 5 151 112 58
4 -2 5 57 38 19
-4 -1 5 151 112 58
4 -1 5 151 112 58
-4 0 5 151 112 58
4 0 5 151 112 58
-4 1 5 57 38 19
4 1 5 57 38 19
-4 2 5 151 112 58
4 2 5 151 112 58
-4 3 5 151 112 58
4 3 5 151 112 58
-4 4 5 151 112 58
4 4 5 151 112 58
-4 5 5 57 38 19
-3 5 5 198 147 70
-2 5 5 198 147 70
-1 5 5 198 147 70
0 5 5 80 58 33
1 5 5 198 147 70
2 5 5 198 147 70
3 5 5 198 147 70
4 5 5 57 38 19
-5 -7 6 136 65 46
-4 -7 6 136 65 46
4 -7 6 136 65 46
5 -7 6 136 65 46
-6 -6 6 80 58 33
-5 -6 6 136 65 46
-4 -6 6 136 65 46
-3 -6 6 57 38 19
-2 -6 6 80 58 33
-1 -6 6 80 58 33
0 -6 6 80 58 33
1 -6 6 80 58 33
2 -6 6 80 58 33
3 -6 6 57 38 19
4 -6 6 80 58 33
5 -6 6 136 65 46
-6 -5 6 198 147 70
5 -5 6 181 88 63
-6 -4 6 198 147 70
5 -4 6 136 65 46
-6 -3 6 198 147 70
5 -3 6 181 88 63
-6 -2 6 80 58 33
5 -2 6 181 88 63
-5 -1 6 136 65 46
5 -1 6 136 65 46
-5 0 6 136 65 46
5 0 6 136 65 46
-5 1 6 181 88 63
5 1 6 181 88 63
-5 2 6 136 65 46
-4 2 6 136 65 46
5 2 6 136 65 46
-5 3 6 136 65 46
-4 3 6 136 65 46
5 3 6 136 65 46
-5 4 6 136 65 46
-4 4 6 136 65 46
5 4 6 136 65 46
-5 5 6 181 88 63
-4 5 6 136 65 46
-3 5 6 57 38 19
-2 5 6 80 58 33
-1 5 6 80 58 33
0 5 6 80 58 33
1 5 6 80 58 33
2 5 6 80 58 33
3 5 6 57 38 19
4 5 6 57 38 19
5 5 6 181 88 63
-5 6 6 136 65 46
-4 6 6 136 65 46
4 6 6 136 65 46
5 6 6 136 65 46
-4 -7 7 181 88 63
-3 -7 7 136 65 46
3 -7 7 136 65 46
4 -7 7 136 65 46
-6 -6 7 80 58 33
-5 -6 7 151 112 58
-4 -6 7 136 65 46
-2 -6 7 151 112 58
-1 -6 7 198 147 70
0 -6 7 80 58 33
1 -6 7 198 147 70
2 -6 7 151 112 58
3 -6 7 151 112 58
4 -6 7 181 88 63
-6 -5 7 198 147 70
4 -5 7 136 65 46
-5 -4 7 255 225 0
4 -4 7 136 65 46
-6 -3 7 198 147 70
4 -3 7 181 88 63
-6 -2 7 80 58 33
-5 -2 7 151 112 58
4 -2 7 136 65 46
-4 -1 7 136 65 46
4 -1 7 136 65 46
-4 0 7 136 65 46
4 0 7 181 88 63
-4 1 7 181 88 63
4 1 7 136 65 46
-4 2 7 181 88 63
4 2 7 54 54 54
-4 3 7 136 65 46
4 3 7 136 65 46
-4 4 7 181 88 63
4 4 7 181 88 63
-4 5 7 136 65 46
-3 5 7 136 65 46
-2 5 7 151 112 58
-1 5 7 198 147 70
0 5 7 80 58 33
1 5 7 198 147 70
2 5 7 151 112 58
3 5 7 151 112 58
4 5 7 136 65 46
-4 6 7 136 65 46
-3 6 7 136 65 46
3 6 7 136 65 46
4 6 7 136 65 46
-7 -7 8 136 65 46
-6 -7 8 136 65 46
-5 -7 8 181 88 63
-4 -7 8 136 65 46
-3 -7 8 181 88 63
-2 -7 8 136 65 46
2 -7 8 136 65 46
3 -7 8 136 65 46
4 -7 8 181 88 63
-6 -6 8 57 38 19
-3 -6 8 136 65 46
-2 -6 8 136 65 46
0 -6 8 80 58 33
2 -6 8 151 112 58
3 -6 8 151 112 58
-6 -5 8 198 147 70
-3 -5 8 136 65 46
-1 -5 8 255 225 0
1 -5 8 255 225 0
3 -5 8 198 147 70
-5 -4 8 255 225 0
-3 -4 8 136 65 46
3 -4 8 198 147 70
-6 -3 8 198 147 70
3 -3 8 198 147 70
-6 -2 8 57 38 19
3 -2 8 151 112 58
-7 -1 8 136 65 46
-6 -1 8 181 88 63
-5 -1 8 136 65 46
-4 -1 8 181 88 63
-3 -1 8 136 65 46
3 -1 8 181 88 63
4 -1 8 136 65 46
-3 0 8 181 88 63
3 0 8 181 88 63
-3 1 8 136 65 46
3 1 8 54 54 54
-3 2 8 136 65 46
4 2 8 54 54 54
-3 3 8 181 88 63
3 3 8 54 54 54
-3 4 8 136 65 46
-1 4 8 255 225 0
1 4 8 54 54 54
3 4 8 181 88 63
-3 5 8 181 88 63
0 5 8 80 58 33
3 5 8 136 65 46
-3 6 8 136 65 46
-2 6 8 136 65 46
2 6 8 136 65 46
3 6 8 181 88 63
-2 -7 9 136 65 46
-1 -7 9 136 65 46
1 -7 9 136 65 46
2 -7 9 136 65 46
-7 -6 9 136 65 46
-6 -6 9 181 88 63
-5 -6 9 136 65 46
-4 -6 9 181 88 63
-3 -6 9 136 65 46
-2 -6 9 181 88 63
-1 -6 9 136 65 46
0 -6 9 57 38 19
1 -6 9 151 112 58
2 -6 9 136 65 46
3 -6 9 181 88 63
4 -6 9 136 65 46
-6 -5 9 151 112 58
-2 -5 9 136 65 46
3 -5 9 151 112 58
-6 -4 9 198 147 70
-2 -4 9 136 65 46
2 -4 9 54 54 54
-6 -3 9 151 112 58
-2 -3 9 136 65 46
3 -3 9 151 112 58
-7 -2 9 136 65 46
-6 -2 9 136 65 46
-5 -2 9 181 88 63
-4 -2 9 136 65 46
-3 -2 9 136 65 46
-2 -2 9 181 88 63
2 -2 9 136 65 46
3 -2 9 181 88 63
4 -2 9 136 65 46
-2 -1 9 181 88 63
2 -1 9 181 88 63
-2 0 9 136 65 46
2 0 9 136 65 46
-2 1 9 181 88 63
2 1 9 136 65 46
3 1 9 54 54 54
-2 2 9 181 88 63
3 2 9 255 225 0
4 2 9 86 86 86
-2 3 9 181 88 63
2 3 9 136 65 46
3 3 9 54 54 54
-2 4 9 136 65 46
2 4 9 136 65 46
-2 5 9 136 65 46
0 5 9 57 38 19
2 5 9 181 88 63
-2 6 9 136 65 46
-1 6 9 136 65 46
1 6 9 136 65 46
2 6 9 136 65 46
-1 -7 10 181 88 63
0 -7 10 136 65 46
1 -7 10 136 65 46
-1 -6 10 181 88 63
0 -6 10 136 65 46
1 -6 10 181 88 63
-7 -5 10 136 65 46
-6 -5 10 136 65 46
-5 -5 10 181 88 63
-4 -5 10 181 88 63
-3 -5 10 136 65 46
-2 -5 10 181 88 63
-1 -5 10 181 88 63
1 -5 10 181 88 63
2 -5 10 136 65 46
3 -5 10 181 88 63
4 -5 10 181 88 63
-6 -4 10 151 112 58
-1 -4 10 136 65 46
2 -4 10 136 65 46
3 -4 10 151 112 58
-7 -3 10 181 88 63
-6 -3 10 136 65 46
-5 -3 10 136 65 46
-4 -3 10 181 88 63
-3 -3 10 181 88 63
-2 -3 10 136 65 46
-1 -3 10 136 65 46
1 -3 10 181 88 63
2 -3 10 181 88 63
3 -3 10 136 65 46
4 -3 10 136 65 46
-1 -2 10 181 88 63
1 -2 10 181 88 63
-1 -1 10 181 88 63
1 -1 10 181 88 63
-1 0 10 181 88 63
1 0 10 136 65 46
-1 1 10 181 88 63
1 1 10 136 65 46
3 1 10 86 86 86
-1 2 10 181 88 63
1 2 10 181 88 63
2 2 10 54 54 54
4 2 10 54 54 54
-1 3 10 181 88 63
1 3 10 181 88 63
3 3 10 86 86 86
-1 4 10 136 65 46
1 4 10 181 88 63
-1 5 10 181 88 63
0 5 10 136 65 46
1 5 10 136 65 46
-1 6 10 136 65 46
0 6 10 136 65 46
1 6 10 181 88 63
0 -7 11 136 65 46
0 -6 11 181 88 63
0 -5 11 181 88 63
-7 -4 11 136 65 46
-6 -4 11 181 88 63
-5 -4 11 136 65 46
-4 -4 11 181 88 63
-3 -4 11 181 88 63
-2 -4 11 181 88 63
-1 -4 11 181 88 63
0 -4 11 181 88 63
1 -4 11 136 65 46
2 -4 11 181 88 63
3 -4 11 181 88 63
4 -4 11 181 88 63
0 -3 11 181 88 63
0 -2 11 181 88 63
0 -1 11 181 88 63
0 0 11 136 65 46
0 1 11 181 88 63
3 1 11 86 86 86
0 2 11 181 88 63
2 2 11 86 86 86
4 2 11 86 86 86
0 3 11 181 88 63
3 3 11 86 86 86
0 4 11 181 88 63
0 5 11 181 88 63
0 6 11 136 65 46
