ply
format ascii 1.0
comment : MagicaVoxel @ Ephtracy
element vertex 1218
property float x
property float y
property float z
property uchar red
property uchar green
property uchar blue
end_header
-6 -8 0 241 244 230
5 -8 0 241 244 230
-6 -7 0 241 244 230
5 -7 0 241 244 230
-8 -6 0 241 244 230
-7 -6 0 241 244 230
-6 -6 0 241 244 230
5 -6 0 241 244 230
6 -6 0 241 244 230
7 -6 0 241 244 230
-8 5 0 241 244 230
-7 5 0 241 244 230
-6 5 0 241 244 230
-5 5 0 241 244 230
-4 5 0 241 244 230
-3 5 0 241 244 230
-2 5 0 241 244 230
-1 5 0 54 54 54
0 5 0 54 54 54
1 5 0 241 244 230
2 5 0 241 244 230
3 5 0 241 244 230
4 5 0 241 244 230
5 5 0 241 244 230
6 5 0 241 244 230
7 5 0 241 244 230
-6 6 0 56 139 48
-5 6 0 56 139 48
-4 6 0 92 206 44
-3 6 0 56 139 48
-2 6 0 241 244 230
1 6 0 241 244 230
2 6 0 56 139 48
3 6 0 92 206 44
4 6 0 56 139 48
5 6 0 56 139 48
-6 -8 1 228 231 218
5 -8 1 228 231 218
-6 -7 1 228 231 218
5 -7 1 228 231 218
-8 -6 1 228 231 218
-7 -6 1 228 231 218
-6 -6 1 241 244 230
5 -6 1 241 244 230
6 -6 1 228 231 218
7 -6 1 228 231 218
-8 5 1 241 244 230
-7 5 1 228 231 218
-6 5 1 228 231 218
-5 5 1 228 231 218
-4 5 1 228 231 218
-3 5 1 228 231 218
-2 5 1 228 231 218
-1 5 1 54 54 54
0 5 1 54 54 54
1 5 1 228 231 218
2 5 1 228 231 218
3 5 1 228 231 218
4 5 1 228 231 218
5 5 1 228 231 218
6 5 1 228 231 218
7 5 1 241 244 230
-2 6 1 241 244 230
1 6 1 241 244 230
-6 -8 2 228 231 218
5 -8 2 228 231 218
-6 -7 2 228 231 218
5 -7 2 228 231 218
-8 -6 2 228 231 218
-7 -6 2 228 231 218
-6 -6 2 241 244 230
5 -6 2 241 244 230
6 -6 2 228 231 218
7 -6 2 228 231 218
-8 5 2 241 244 230
-7 5 2 228 231 218
-6 5 2 163 240 245
-5 5 2 163 240 245
-4 5 2 228 231 218
-3 5 2 228 231 218
-2 5 2 228 231 218
-1 5 2 228 231 218
0 5 2 228 231 218
1 5 2 228 231 218
2 5 2 228 231 218
3 5 2 228 231 218
4 5 2 163 240 245
5 5 2 163 240 245
6 5 2 228 231 218
7 5 2 241 244 230
-2 6 2 241 244 230
-1 6 2 241 244 230
0 6 2 241 244 230
1 6 2 241 244 230
-6 -8 3 228 231 218
5 -8 3 228 231 218
-6 -7 3 228 231 218
5 -7 3 228 231 218
-8 -6 3 228 231 218
-7 -6 3 228 231 218
-6 -6 3 241 244 230
5 -6 3 241 244 230
6 -6 3 228 231 218
7 -6 3 228 231 218
-8 5 3 241 244 230
-7 5 3 228 231 218
-6 5 3 163 240 245
-5 5 3 163 240 245
-4 5 3 228 231 218
-3 5 3 228 231 218
-2 5 3 228 231 218
-1 5 3 228 231 218
0 5 3 228 231 218
1 5 3 228 231 218
2 5 3 228 231 218
3 5 3 228 231 218
4 5 3 163 240 245
5 5 3 163 240 245
6 5 3 228 231 218
7 5 3 241 244 230
-6 -8 4 228 231 218
5 -8 4 228 231 218
-6 -7 4 228 231 218
5 -7 4 228 231 218
-8 -6 4 228 231 218
-7 -6 4 228 231 218
-6 -6 4 241 244 230
5 -6 4 241 244 230
6 -6 4 228 231 218
7 -6 4 228 231 218
-8 5 4 241 244 230
-7 5 4 228 231 218
-6 5 4 104 216 245
-5 5 4 104 216 245
-4 5 4 228 231 218
-3 5 4 228 231 218
-2 5 4 228 231 218
-1 5 4 228 231 218
0 5 4 228 231 218
1 5 4 228 231 218
2 5 4 228 231 218
3 5 4 228 231 218
4 5 4 104 216 245
5 5 4 104 216 245
6 5 4 228 231 218
7 5 4 241 244 230
-6 -8 5 228 231 218
5 -8 5 228 231 218
-6 -7 5 228 231 218
5 -7 5 228 231 218
-8 -6 5 228 231 218
-7 -6 5 228 231 218
-6 -6 5 241 244 230
5 -6 5 241 244 230
6 -6 5 228 231 218
7 -6 5 228 231 218
-8 5 5 241 244 230
-7 5 5 228 231 218
-6 5 5 228 231 218
-5 5 5 228 231 218
-4 5 5 228 231 218
-3 5 5 228 231 218
-2 5 5 228 231 218
-1 5 5 228 231 218
0 5 5 228 231 218
1 5 5 228 231 218
2 5 5 228 231 218
3 5 5 228 231 218
4 5 5 228 231 218
5 5 5 228 231 218
6 5 5 228 231 218
7 5 5 241 244 230
-6 6 5 241 244 230
-5 6 5 241 244 230
4 6 5 241 244 230
5 6 5 241 244 230
-6 -8 6 228 231 218
5 -8 6 228 231 218
-6 -7 6 228 231 218
5 -7 6 228 231 218
-8 -6 6 228 231 218
-7 -6 6 228 231 218
-6 -6 6 241 244 230
5 -6 6 241 244 230
6 -6 6 228 231 218
7 -6 6 228 231 218
-8 5 6 241 244 230
-7 5 6 228 231 218
-6 5 6 228 231 218
-5 5 6 228 231 218
-4 5 6 228 231 218
-3 5 6 228 231 218
-2 5 6 228 231 218
-1 5 6 228 231 218
0 5 6 228 231 218
1 5 6 228 231 218
2 5 6 228 231 218
3 5 6 228 231 218
4 5 6 228 231 218
5 5 6 228 231 218
6 5 6 228 231 218
7 5 6 241 244 230
-6 -8 7 241 244 230
-5 -8 7 241 244 230
-4 -8 7 241 244 230
-3 -8 7 241 244 230
-2 -8 7 241 244 230
-1 -8 7 241 244 230
0 -8 7 241 244 230
1 -8 7 241 244 230
2 -8 7 241 244 230
3 -8 7 241 244 230
4 -8 7 241 244 230
5 -8 7 241 244 230
-6 -7 7 241 244 230
-5 -7 7 241 244 230
-4 -7 7 241 244 230
-3 -7 7 241 244 230
-2 -7 7 241 244 230
-1 -7 7 241 244 230
0 -7 7 241 244 230
1 -7 7 241 244 230
2 -7 7 241 244 230
3 -7 7 241 244 230
4 -7 7 241 244 230
5 -7 7 241 244 230
-8 -6 7 241 244 230
-7 -6 7 241 244 230
-6 -6 7 241 244 230
-5 -6 7 241 244 230
-4 -6 7 241 244 230
-3 -6 7 241 244 230
-2 -6 7 241 244 230
-1 -6 7 241 244 230
0 -6 7 241 244 230
1 -6 7 241 244 230
2 -6 7 241 244 230
3 -6 7 241 244 230
4 -6 7 241 244 230
5 -6 7 241 244 230
6 -6 7 241 244 230
7 -6 7 241 244 230
-8 5 7 241 244 230
-7 5 7 241 244 230
-6 5 7 241 244 230
-5 5 7 241 244 230
-4 5 7 241 244 230
-3 5 7 241 244 230
-2 5 7 241 244 230
-1 5 7 241 244 230
0 5 7 241 244 230
1 5 7 241 244 230
2 5 7 241 244 230
3 5 7 241 244 230
4 5 7 241 244 230
5 5 7 241 244 230
6 5 7 241 244 230
7 5 7 241 244 230
-6 -8 8 241 244 230
5 -8 8 241 244 230
-6 -7 8 241 244 230
-4 -7 8 241 244 230
-2 -7 8 241 244 230
0 -7 8 197 200 189
1 -7 8 197 200 189
2 -7 8 197 200 189
3 -7 8 197 200 189
5 -7 8 241 244 230
-8 -6 8 228 231 218
-7 -6 8 228 231 218
-6 -6 8 228 231 218
-5 -6 8 228 231 218
-4 -6 8 228 231 218
-3 -6 8 54 54 54
-2 -6 8 228 231 218
-1 -6 8 228 231 218
0 -6 8 228 231 218
1 -6 8 228 231 218
2 -6 8 228 231 218
3 -6 8 228 231 218
4 -6 8 228 231 218
5 -6 8 228 231 218
6 -6 8 228 231 218
7 -6 8 228 231 218
-8 5 8 228 231 218
-7 5 8 228 231 218
-6 5 8 228 231 218
-5 5 8 228 231 218
-4 5 8 228 231 218
-3 5 8 228 231 218
-2 5 8 228 231 218
-1 5 8 228 231 218
0 5 8 228 231 218
1 5 8 228 231 218
2 5 8 228 231 218
3 5 8 228 231 218
4 5 8 228 231 218
5 5 8 228 231 218
6 5 8 228 231 218
7 5 8 228 231 218
-4 -7 9 241 244 230
-2 -7 9 241 244 230
-8 -6 9 228 231 218
-7 -6 9 228 231 218
-6 -6 9 228 231 218
-5 -6 9 228 231 218
-4 -6 9 228 231 218
-3 -6 9 54 54 54
-2 -6 9 228 231 218
-1 -6 9 228 231 218
0 -6 9 228 231 218
1 -6 9 228 231 218
2 -6 9 228 231 218
3 -6 9 228 231 218
4 -6 9 228 231 218
5 -6 9 228 231 218
6 -6 9 228 231 218
7 -6 9 228 231 218
-8 5 9 228 231 218
-7 5 9 228 231 218
-6 5 9 163 240 245
-5 5 9 163 240 245
-4 5 9 228 231 218
-3 5 9 163 240 245
-2 5 9 163 240 245
-1 5 9 228 231 218
0 5 9 228 231 218
1 5 9 163 240 245
2 5 9 163 240 245
3 5 9 228 231 218
4 5 9 163 240 245
5 5 9 163 240 245
6 5 9 228 231 218
7 5 9 228 231 218
-4 -7 10 241 244 230
-3 -7 10 241 244 230
-2 -7 10 241 244 230
-8 -6 10 228 231 218
-7 -6 10 228 231 218
-6 -6 10 228 231 218
-5 -6 10 228 231 218
-4 -6 10 228 231 218
-3 -6 10 228 231 218
-2 -6 10 228 231 218
-1 -6 10 228 231 218
0 -6 10 228 231 218
1 -6 10 228 231 218
2 -6 10 228 231 218
3 -6 10 228 231 218
4 -6 10 228 231 218
5 -6 10 228 231 218
6 -6 10 228 231 218
7 -6 10 228 231 218
-8 5 10 228 231 218
-7 5 10 228 231 218
-6 5 10 163 240 245
-5 5 10 163 240 245
-4 5 10 228 231 218
-3 5 10 163 240 245
-2 5 10 163 240 245
-1 5 10 228 231 218
0 5 10 228 231 218
1 5 10 163 240 245
2 5 10 163 240 245
3 5 10 228 231 218
4 5 10 163 240 245
5 5 10 163 240 245
6 5 10 228 231 218
7 5 10 228 231 218
-8 -6 11 228 231 218
-7 -6 11 228 231 218
-6 -6 11 228 231 218
-5 -6 11 228 231 218
-4 -6 11 228 231 218
-3 -6 11 228 231 218
-2 -6 11 228 231 218
-1 -6 11 228 231 218
0 -6 11 228 231 218
1 -6 11 228 231 218
2 -6 11 228 231 218
3 -6 11 228 231 218
4 -6 11 228 231 218
5 -6 11 228 231 218
6 -6 11 228 231 218
7 -6 11 228 231 218
-8 5 11 228 231 218
-7 5 11 228 231 218
-6 5 11 104 216 245
-5 5 11 104 216 245
-4 5 11 228 231 218
-3 5 11 104 216 245
-2 5 11 104 216 245
-1 5 11 228 231 218
0 5 11 228 231 218
1 5 11 104 216 245
2 5 11 104 216 245
3 5 11 228 231 218
4 5 11 104 216 245
5 5 11 104 216 245
6 5 11 228 231 218
7 5 11 228 231 218
-8 -6 12 228 231 218
-7 -6 12 228 231 218
-6 -6 12 228 231 218
-5 -6 12 228 231 218
-4 -6 12 228 231 218
-3 -6 12 228 231 218
-2 -6 12 228 231 218
-1 -6 12 228 231 218
0 -6 12 228 231 218
1 -6 12 228 231 218
2 -6 12 228 231 218
3 -6 12 228 231 218
4 -6 12 228 231 218
5 -6 12 228 231 218
6 -6 12 228 231 218
7 -6 12 228 231 218
-8 5 12 228 231 218
-7 5 12 228 231 218
-6 5 12 228 231 218
-5 5 12 228 231 218
-4 5 12 228 231 218
-3 5 12 228 231 218
-2 5 12 228 231 218
-1 5 12 228 231 218
0 5 12 228 231 218
1 5 12 228 231 218
2 5 12 228 231 218
3 5 12 228 231 218
4 5 12 228 231 218
5 5 12 228 231 218
6 5 12 228 231 218
7 5 12 228 231 218
-6 6 12 241 244 230
-5 6 12 241 244 230
-3 6 12 241 244 230
-2 6 12 241 244 230
1 6 12 241 244 230
2 6 12 241 244 230
4 6 12 241 244 230
5 6 12 241 244 230
-8 -6 13 228 231 218
-7 -6 13 228 231 218
-6 -6 13 228 231 218
-5 -6 13 228 231 218
-4 -6 13 228 231 218
-3 -6 13 228 231 218
-2 -6 13 228 231 218
-1 -6 13 228 231 218
0 -6 13 228 231 218
1 -6 13 228 231 218
2 -6 13 228 231 218
3 -6 13 228 231 218
4 -6 13 228 231 218
5 -6 13 228 231 218
6 -6 13 228 231 218
7 -6 13 228 231 218
-8 5 13 228 231 218
-7 5 13 228 231 218
-6 5 13 228 231 218
-5 5 13 228 231 218
-4 5 13 228 231 218
-3 5 13 228 231 218
-2 5 13 228 231 218
-1 5 13 228 231 218
0 5 13 228 231 218
1 5 13 228 231 218
2 5 13 228 231 218
3 5 13 228 231 218
4 5 13 228 231 218
5 5 13 228 231 218
6 5 13 228 231 218
7 5 13 228 231 218
-8 -6 14 241 244 230
-7 -6 14 241 244 230
-6 -6 14 241 244 230
-5 -6 14 241 244 230
-4 -6 14 241 244 230
-3 -6 14 241 244 230
-2 -6 14 241 244 230
-1 -6 14 241 244 230
0 -6 14 241 244 230
1 -6 14 241 244 230
2 -6 14 241 244 230
3 -6 14 241 244 230
4 -6 14 241 244 230
5 -6 14 241 244 230
6 -6 14 241 244 230
7 -6 14 241 244 230
-8 -5 14 241 244 230
-7 -5 14 241 244 230
6 -5 14 241 244 230
7 -5 14 241 244 230
-8 -4 14 241 244 230
-7 -4 14 241 244 230
6 -4 14 241 244 230
7 -4 14 241 244 230
-8 -3 14 241 244 230
-7 -3 14 241 244 230
6 -3 14 241 244 230
7 -3 14 241 244 230
-8 -2 14 241 244 230
-7 -2 14 241 244 230
6 -2 14 241 244 230
7 -2 14 241 244 230
-8 -1 14 241 244 230
-7 -1 14 241 244 230
6 -1 14 241 244 230
7 -1 14 241 244 230
-8 0 14 241 244 230
-7 0 14 241 244 230
6 0 14 241 244 230
7 0 14 241 244 230
-8 1 14 241 244 230
-7 1 14 241 244 230
6 1 14 241 244 230
7 1 14 241 244 230
-8 2 14 241 244 230
-7 2 14 241 244 230
6 2 14 241 244 230
7 2 14 241 244 230
-8 3 14 241 244 230
-7 3 14 241 244 230
6 3 14 241 244 230
7 3 14 241 244 230
-8 4 14 241 244 230
-7 4 14 241 244 230
6 4 14 241 244 230
7 4 14 241 244 230
-8 5 14 241 244 230
-7 5 14 241 244 230
-6 5 14 241 244 230
-5 5 14 241 244 230
-4 5 14 241 244 230
-3 5 14 241 244 230
-2 5 14 241 244 230
-1 5 14 241 244 230
0 5 14 241 244 230
1 5 14 241 244 230
2 5 14 241 244 230
3 5 14 241 244 230
4 5 14 241 244 230
5 5 14 241 244 230
6 5 14 241 244 230
7 5 14 241 244 230
-8 -6 15 241 244 230
-7 -6 15 241 244 230
-6 -6 15 241 244 230
-5 -6 15 228 231 218
-4 -6 15 228 231 218
-3 -6 15 228 231 218
-2 -6 15 228 231 218
-1 -6 15 228 231 218
0 -6 15 228 231 218
1 -6 15 228 231 218
2 -6 15 228 231 218
3 -6 15 228 231 218
4 -6 15 228 231 218
5 -6 15 241 244 230
6 -6 15 241 244 230
7 -6 15 241 244 230
-6 -5 15 228 231 218
5 -5 15 228 231 218
-6 -4 15 228 231 218
5 -4 15 228 231 218
-6 -3 15 228 231 218
5 -3 15 228 231 218
-6 -2 15 228 231 218
5 -2 15 228 231 218
6 -2 15 41 116 71
-6 -1 15 228 231 218
5 -1 15 228 231 218
6 -1 15 41 116 71
-7 0 15 41 116 71
-6 0 15 228 231 218
5 0 15 228 231 218
-7 1 15 241 244 230
-6 1 15 228 231 218
5 1 15 228 231 218
6 1 15 241 244 230
-6 2 15 54 54 54
5 2 15 54 54 54
-7 3 15 241 244 230
-6 3 15 228 231 218
5 3 15 228 231 218
6 3 15 241 244 230
-6 4 15 228 231 218
5 4 15 228 231 218
-8 5 15 241 244 230
-7 5 15 241 244 230
-6 5 15 241 244 230
-5 5 15 228 231 218
-4 5 15 228 231 218
-3 5 15 228 231 218
-2 5 15 228 231 218
-1 5 15 228 231 218
0 5 15 228 231 218
1 5 15 228 231 218
2 5 15 228 231 218
3 5 15 228 231 218
4 5 15 228 231 218
5 5 15 241 244 230
6 5 15 241 244 230
7 5 15 241 244 230
-6 -6 16 241 244 230
-5 -6 16 228 231 218
-4 -6 16 163 240 245
-3 -6 16 163 240 245
-2 -6 16 228 231 218
-1 -6 16 163 240 245
0 -6 16 163 240 245
1 -6 16 228 231 218
2 -6 16 163 240 245
3 -6 16 163 240 245
4 -6 16 228 231 218
5 -6 16 241 244 230
-6 -5 16 228 231 218
5 -5 16 228 231 218
-6 -4 16 228 231 218
5 -4 16 228 231 218
-6 -3 16 228 231 218
5 -3 16 228 231 218
6 -3 16 41 116 71
-7 -2 16 41 116 71
-6 -2 16 228 231 218
5 -2 16 228 231 218
6 -2 16 56 139 48
-7 -1 16 41 116 71
-6 -1 16 228 231 218
5 -1 16 228 231 218
-6 0 16 228 231 218
5 0 16 228 231 218
6 0 16 56 139 48
-7 1 16 241 244 230
-6 1 16 228 231 218
5 1 16 228 231 218
6 1 16 241 244 230
-6 2 16 54 54 54
5 2 16 54 54 54
-7 3 16 241 244 230
-6 3 16 228 231 218
5 3 16 228 231 218
6 3 16 241 244 230
-6 4 16 228 231 218
5 4 16 228 231 218
-6 5 16 241 244 230
-5 5 16 228 231 218
-4 5 16 163 240 245
-3 5 16 163 240 245
-2 5 16 228 231 218
-1 5 16 163 240 245
0 5 16 163 240 245
1 5 16 228 231 218
2 5 16 163 240 245
3 5 16 163 240 245
4 5 16 228 231 218
5 5 16 241 244 230
-6 -6 17 241 244 230
-5 -6 17 228 231 218
-4 -6 17 163 240 245
-3 -6 17 163 240 245
-2 -6 17 228 231 218
-1 -6 17 163 240 245
0 -6 17 163 240 245
1 -6 17 228 231 218
2 -6 17 163 240 245
3 -6 17 163 240 245
4 -6 17 228 231 218
5 -6 17 241 244 230
-6 -5 17 228 231 218
5 -5 17 228 231 218
-6 -4 17 228 231 218
5 -4 17 228 231 218
-7 -3 17 41 116 71
-6 -3 17 228 231 218
5 -3 17 228 231 218
6 -3 17 56 139 48
-7 -2 17 56 139 48
-6 -2 17 228 231 218
5 -2 17 228 231 218
-7 -1 17 56 139 48
-6 -1 17 228 231 218
5 -1 17 228 231 218
-7 0 17 56 139 48
-6 0 17 228 231 218
5 0 17 228 231 218
6 0 17 56 139 48
-7 1 17 241 244 230
-6 1 17 228 231 218
5 1 17 228 231 218
6 1 17 241 244 230
-7 2 17 241 244 230
-6 2 17 228 231 218
5 2 17 228 231 218
6 2 17 241 244 230
-7 3 17 241 244 230
-6 3 17 228 231 218
5 3 17 228 231 218
6 3 17 241 244 230
-6 4 17 228 231 218
5 4 17 228 231 218
-6 5 17 241 244 230
-5 5 17 228 231 218
-4 5 17 163 240 245
-3 5 17 163 240 245
-2 5 17 228 231 218
-1 5 17 163 240 245
0 5 17 163 240 245
1 5 17 228 231 218
2 5 17 163 240 245
3 5 17 163 240 245
4 5 17 228 231 218
5 5 17 241 244 230
-6 -6 18 241 244 230
-5 -6 18 228 231 218
-4 -6 18 104 216 245
-3 -6 18 104 216 245
-2 -6 18 228 231 218
-1 -6 18 104 216 245
0 -6 18 104 216 245
1 -6 18 228 231 218
2 -6 18 104 216 245
3 -6 18 104 216 245
4 -6 18 228 231 218
5 -6 18 241 244 230
-6 -5 18 228 231 218
5 -5 18 228 231 218
6 -5 18 92 206 44
-7 -4 18 41 116 71
-6 -4 18 228 231 218
5 -4 18 228 231 218
6 -4 18 41 116 71
-6 -3 18 228 231 218
5 -3 18 228 231 218
-6 -2 18 228 231 218
5 -2 18 228 231 218
-7 -1 18 92 206 44
-6 -1 18 228 231 218
5 -1 18 228 231 218
-6 0 18 228 231 218
5 0 18 228 231 218
6 0 18 92 206 44
-7 1 18 56 139 48
-6 1 18 228 231 218
5 1 18 228 231 218
6 1 18 56 139 48
-7 2 18 41 116 71
-6 2 18 228 231 218
5 2 18 228 231 218
-6 3 18 228 231 218
5 3 18 228 231 218
6 3 18 41 116 71
-7 4 18 92 206 44
-6 4 18 228 231 218
5 4 18 228 231 218
-6 5 18 241 244 230
-5 5 18 228 231 218
-4 5 18 104 216 245
-3 5 18 104 216 245
-2 5 18 228 231 218
-1 5 18 104 216 245
0 5 18 104 216 245
1 5 18 228 231 218
2 5 18 104 216 245
3 5 18 104 216 245
4 5 18 228 231 218
5 5 18 241 244 230
-4 -7 19 241 244 230
-3 -7 19 241 244 230
-1 -7 19 241 244 230
0 -7 19 241 244 230
2 -7 19 241 244 230
3 -7 19 241 244 230
-6 -6 19 241 244 230
-5 -6 19 228 231 218
-4 -6 19 228 231 218
-3 -6 19 228 231 218
-2 -6 19 228 231 218
-1 -6 19 228 231 218
0 -6 19 228 231 218
1 -6 19 228 231 218
2 -6 19 228 231 218
3 -6 19 228 231 218
4 -6 19 228 231 218
5 -6 19 241 244 230
6 -6 19 92 206 44
-6 -5 19 228 231 218
5 -5 19 228 231 218
-7 -4 19 56 139 48
-6 -4 19 228 231 218
5 -4 19 228 231 218
6 -4 19 56 139 48
-6 -3 19 228 231 218
5 -3 19 228 231 218
-6 -2 19 228 231 218
5 -2 19 228 231 218
-6 -1 19 228 231 218
5 -1 19 228 231 218
-6 0 19 228 231 218
5 0 19 228 231 218
-6 1 19 228 231 218
5 1 19 228 231 218
-7 2 19 56 139 48
-6 2 19 228 231 218
5 2 19 228 231 218
6 2 19 56 139 48
-7 3 19 56 139 48
-6 3 19 228 231 218
5 3 19 228 231 218
6 3 19 56 139 48
-6 4 19 228 231 218
5 4 19 228 231 218
6 4 19 92 206 44
-6 5 19 241 244 230
-5 5 19 228 231 218
-4 5 19 228 231 218
-3 5 19 228 231 218
-2 5 19 228 231 218
-1 5 19 228 231 218
0 5 19 228 231 218
1 5 19 228 231 218
2 5 19 228 231 218
3 5 19 228 231 218
4 5 19 228 231 218
5 5 19 241 244 230
-4 6 19 241 244 230
-3 6 19 241 244 230
-1 6 19 241 244 230
0 6 19 241 244 230
2 6 19 241 244 230
3 6 19 241 244 230
-6 -6 20 241 244 230
-5 -6 20 228 231 218
-4 -6 20 228 231 218
-3 -6 20 228 231 218
-2 -6 20 228 231 218
-1 -6 20 228 231 218
0 -6 20 228 231 218
1 -6 20 228 231 218
2 -6 20 228 231 218
3 -6 20 228 231 218
4 -6 20 228 231 218
5 -6 20 241 244 230
-6 -5 20 228 231 218
5 -5 20 228 231 218
-6 -4 20 228 231 218
5 -4 20 228 231 218
-7 -3 20 92 206 44
-6 -3 20 228 231 218
5 -3 20 228 231 218
6 -3 20 92 206 44
-6 -2 20 228 231 218
5 -2 20 228 231 218
-6 -1 20 228 231 218
5 -1 20 228 231 218
-6 0 20 228 231 218
5 0 20 228 231 218
-6 1 20 228 231 218
5 1 20 228 231 218
-7 2 20 92 206 44
-6 2 20 228 231 218
5 2 20 228 231 218
6 2 20 92 206 44
-6 3 20 228 231 218
5 3 20 228 231 218
-6 4 20 228 231 218
5 4 20 228 231 218
-6 5 20 241 244 230
-5 5 20 228 231 218
-4 5 20 228 231 218
-3 5 20 228 231 218
-2 5 20 228 231 218
-1 5 20 228 231 218
0 5 20 228 231 218
1 5 20 228 231 218
2 5 20 228 231 218
3 5 20 228 231 218
4 5 20 228 231 218
5 5 20 241 244 230
6 5 20 92 206 44
-6 -6 21 241 244 230
-5 -6 21 241 244 230
-4 -6 21 241 244 230
-3 -6 21 241 244 230
-2 -6 21 241 244 230
-1 -6 21 241 244 230
0 -6 21 241 244 230
1 -6 21 241 244 230
2 -6 21 241 244 230
3 -6 21 241 244 230
4 -6 21 241 244 230
5 -6 21 241 244 230
-6 -5 21 241 244 230
-5 -5 21 241 244 230
-4 -5 21 241 244 230
-3 -5 21 241 244 230
-2 -5 21 241 244 230
-1 -5 21 241 244 230
0 -5 21 241 244 230
1 -5 21 241 244 230
2 -5 21 241 244 230
3 -5 21 241 244 230
4 -5 21 241 244 230
5 -5 21 241 244 230
-6 -4 21 241 244 230
-5 -4 21 241 244 230
-4 -4 21 241 244 230
-3 -4 21 241 244 230
-2 -4 21 241 244 230
-1 -4 21 241 244 230
0 -4 21 241 244 230
1 -4 21 241 244 230
2 -4 21 241 244 230
3 -4 21 241 244 230
4 -4 21 241 244 230
5 -4 21 241 244 230
-7 -3 21 92 206 44
-6 -3 21 241 244 230
-5 -3 21 241 244 230
-4 -3 21 241 244 230
-3 -3 21 241 244 230
-2 -3 21 241 244 230
-1 -3 21 241 244 230
0 -3 21 241 244 230
1 -3 21 241 244 230
2 -3 21 241 244 230
3 -3 21 241 244 230
4 -3 21 241 244 230
5 -3 21 241 244 230
-6 -2 21 241 244 230
-5 -2 21 241 244 230
-4 -2 21 241 244 230
-3 -2 21 241 244 230
-2 -2 21 241 244 230
-1 -2 21 241 244 230
0 -2 21 241 244 230
1 -2 21 241 244 230
2 -2 21 241 244 230
3 -2 21 241 244 230
4 -2 21 241 244 230
5 -2 21 241 244 230
-6 -1 21 241 244 230
-5 -1 21 241 244 230
-4 -1 21 241 244 230
-3 -1 21 241 244 230
-2 -1 21 241 244 230
-1 -1 21 241 244 230
0 -1 21 241 244 230
1 -1 21 241 244 230
2 -1 21 241 244 230
3 -1 21 241 244 230
4 -1 21 241 244 230
5 -1 21 241 244 230
-6 0 21 241 244 230
-5 0 21 241 244 230
-4 0 21 241 244 230
-3 0 21 241 244 230
-2 0 21 241 244 230
-1 0 21 241 244 230
0 0 21 241 244 230
1 0 21 241 244 230
2 0 21 241 244 230
3 0 21 241 244 230
4 0 21 241 244 230
5 0 21 241 244 230
-6 1 21 241 244 230
-5 1 21 241 244 230
-4 1 21 241 244 230
-3 1 21 241 244 230
-2 1 21 241 244 230
-1 1 21 241 244 230
0 1 21 241 244 230
1 1 21 241 244 230
2 1 21 241 244 230
3 1 21 241 244 230
4 1 21 241 244 230
5 1 21 241 244 230
-6 2 21 241 244 230
-5 2 21 241 244 230
-4 2 21 241 244 230
-3 2 21 241 244 230
-2 2 21 241 244 230
-1 2 21 241 244 230
0 2 21 241 244 230
1 2 21 241 244 230
2 2 21 241 244 230
3 2 21 241 244 230
4 2 21 241 244 230
5 2 21 241 244 230
6 2 21 92 206 44
-7 3 21 92 206 44
-6 3 21 241 244 230
-5 3 21 241 244 230
-4 3 21 241 244 230
-3 3 21 241 244 230
-2 3 21 241 244 230
-1 3 21 241 244 230
0 3 21 241 244 230
1 3 21 241 244 230
2 3 21 241 244 230
3 3 21 241 244 230
4 3 21 241 244 230
5 3 21 241 244 230
-6 4 21 241 244 230
-5 4 21 241 244 230
-4 4 21 241 244 230
-3 4 21 241 244 230
-2 4 21 241 244 230
-1 4 21 241 244 230
0 4 21 241 244 230
1 4 21 241 244 230
2 4 21 241 244 230
3 4 21 241 244 230
4 4 21 241 244 230
5 4 21 241 244 230
-6 5 21 241 244 230
-5 5 21 241 244 230
-4 5 21 241 244 230
-3 5 21 241 244 230
-2 5 21 241 244 230
-1 5 21 241 244 230
0 5 21 241 244 230
1 5 21 241 244 230
2 5 21 241 244 230
3 5 21 241 244 230
4 5 21 241 244 230
5 5 21 241 244 230
-2 -5 22 197 200 189
-1 -5 22 135 138 130
0 -5 22 135 138 130
1 -5 22 197 200 189
-2 -4 22 135 138 130
-1 -4 22 241 244 230
0 -4 22 241 244 230
1 -4 22 197 200 189
-2 -3 22 135 138 130
-1 -3 22 135 138 130
0 -3 22 197 200 189
1 -3 22 135 138 130
-1 -2 22 241 244 230
-5 -1 22 86 86 86
-4 -1 22 241 244 230
-3 -1 22 241 244 230
-2 -1 22 241 244 230
-1 -1 22 241 244 230
-1 0 22 241 244 230
0 0 22 241 244 230
0 1 22 241 244 230
-2 2 22 197 200 189
-1 2 22 197 200 189
0 2 22 135 138 130
1 2 22 135 138 130
-2 3 22 135 138 130
-1 3 22 241 244 230
0 3 22 241 244 230
1 3 22 197 200 189
-2 4 22 135 138 130
-1 4 22 197 200 189
0 4 22 135 138 130
1 4 22 197 200 189
-1 -4 23 241 244 230
0 -4 23 241 244 230
-5 -1 23 135 138 130
-1 3 23 241 244 230
0 3 23 241 244 230
-1 -4 24 241 244 230
0 -4 24 241 244 230
-5 -1 24 157 255 76
-1 3 24 241 244 230
0 3 24 241 244 230
-6 -7 25 241 244 230
-5 -7 25 37 79 142
-4 -7 25 15 134 213
-3 -7 25 11 65 145
-2 -7 25 11 65 145
-1 -7 25 11 65 145
0 -7 25 15 134 213
1 -7 25 15 134 213
2 -7 25 11 65 145
3 -7 25 11 65 145
4 -7 25 15 134 213
5 -7 25 241 244 230
-6 -6 25 241 244 230
-5 -6 25 15 134 213
-4 -6 25 76 181 223
-3 -6 25 11 65 145
-2 -6 25 11 65 145
-1 -6 25 11 65 145
0 -6 25 76 181 223
1 -6 25 15 134 213
2 -6 25 15 134 213
3 -6 25 76 181 223
4 -6 25 11 65 145
5 -6 25 241 244 230
-1 -4 25 241 244 230
0 -4 25 241 244 230
-6 0 25 241 244 230
-5 0 25 76 181 223
-4 0 25 15 134 213
-3 0 25 11 65 145
-2 0 25 11 65 145
-1 0 25 11 65 145
0 0 25 15 134 213
1 0 25 15 134 213
2 0 25 11 65 145
3 0 25 11 65 145
4 0 25 15 134 213
5 0 25 241 244 230
-6 1 25 241 244 230
-5 1 25 11 65 145
-4 1 25 11 65 145
-3 1 25 15 134 213
-2 1 25 15 134 213
-1 1 25 76 181 223
0 1 25 11 65 145
1 1 25 15 134 213
2 1 25 76 181 223
3 1 25 11 65 145
4 1 25 15 134 213
5 1 25 241 244 230
-1 3 25 241 244 230
0 3 25 241 244 230
-6 -5 26 241 244 230
-5 -5 26 11 65 145
-4 -5 26 11 65 145
-3 -5 26 11 65 145
-2 -5 26 76 181 223
-1 -5 26 15 134 213
0 -5 26 15 134 213
1 -5 26 11 65 145
2 -5 26 11 65 145
3 -5 26 15 134 213
4 -5 26 76 181 223
5 -5 26 241 244 230
-6 -4 26 241 244 230
-5 -4 26 76 181 223
-4 -4 26 11 65 145
-3 -4 26 15 134 213
-2 -4 26 76 181 223
-1 -4 26 15 134 213
0 -4 26 76 181 223
1 -4 26 11 65 145
2 -4 26 15 134 213
3 -4 26 76 181 223
4 -4 26 37 79 142
5 -4 26 241 244 230
-6 2 26 241 244 230
-5 2 26 76 181 223
-4 2 26 15 134 213
-3 2 26 11 65 145
-2 2 26 11 65 145
-1 2 26 76 181 223
0 2 26 15 134 213
1 2 26 15 134 213
2 2 26 11 65 145
3 2 26 15 134 213
4 2 26 76 181 223
5 2 26 241 244 230
-6 3 26 241 244 230
-5 3 26 15 134 213
-4 3 26 11 65 145
-3 3 26 15 134 213
-2 3 26 11 65 145
-1 3 26 11 65 145
0 3 26 76 181 223
1 3 26 15 134 213
2 3 26 15 134 213
3 3 26 76 181 223
4 3 26 11 65 145
5 3 26 241 244 230
-6 -3 27 241 244 230
-5 -3 27 76 181 223
-4 -3 27 15 134 213
-3 -3 27 11 65 145
-2 -3 27 11 65 145
-1 -3 27 11 65 145
0 -3 27 15 134 213
1 -3 27 15 134 213
2 -3 27 11 65 145
3 -3 27 11 65 145
4 -3 27 15 134 213
5 -3 27 241 244 230
-6 -2 27 241 244 230
-5 -2 27 15 134 213
-4 -2 27 76 181 223
-3 -2 27 11 65 145
-2 -2 27 15 134 213
-1 -2 27 11 65 145
0 -2 27 11 65 145
1 -2 27 76 181 223
2 -2 27 15 134 213
3 -2 27 76 181 223
4 -2 27 76 181 223
5 -2 27 241 244 230
-6 4 27 241 244 230
-5 4 27 11 65 145
-4 4 27 15 134 213
-3 4 27 76 181 223
-2 4 27 15 134 213
-1 4 27 11 65 145
0 4 27 11 65 145
1 4 27 15 134 213
2 4 27 15 134 213
3 4 27 76 181 223
4 4 27 11 65 145
5 4 27 241 244 230
-6 5 27 241 244 230
-5 5 27 11 65 145
-4 5 27 11 65 145
-3 5 27 15 134 213
-2 5 27 15 134 213
-1 5 27 15 134 213
0 5 27 11 65 145
1 5 27 11 65 145
2 5 27 76 181 223
3 5 27 15 134 213
4 5 27 15 134 213
5 5 27 241 244 230
