ply
format ascii 1.0
comment : MagicaVoxel @ Ephtracy
element vertex 439
property float x
property float y
property float z
property uchar red
property uchar green
property uchar blue
end_header
-3 -7 0 136 65 46
5 -7 0 136 65 46
-3 -6 0 136 65 46
5 -6 0 136 65 46
-6 -5 0 135 138 130
-3 -5 0 136 65 46
5 -5 0 136 65 46
-3 -4 0 136 65 46
-1 -4 0 80 58 33
3 -4 0 80 58 33
5 -4 0 136 65 46
-3 -3 0 136 65 46
0 -3 0 57 38 19
1 -3 0 57 38 19
2 -3 0 57 38 19
5 -3 0 136 65 46
-4 -2 0 80 58 33
-3 -2 0 80 58 33
-2 -2 0 80 58 33
-1 -2 0 80 58 33
3 -2 0 80 58 33
4 -2 0 80 58 33
5 -2 0 80 58 33
-5 -1 0 80 58 33
-4 -1 0 80 58 33
5 -1 0 80 58 33
-6 0 0 80 58 33
5 0 0 80 58 33
-6 1 0 80 58 33
5 1 0 80 58 33
-5 2 0 80 58 33
5 2 0 80 58 33
-4 3 0 80 58 33
5 3 0 80 58 33
-4 4 0 80 58 33
-3 4 0 80 58 33
-2 4 0 80 58 33
-1 4 0 80 58 33
0 4 0 80 58 33
1 4 0 80 58 33
2 4 0 80 58 33
3 4 0 80 58 33
4 4 0 80 58 33
5 4 0 80 58 33
-2 5 0 80 58 33
-1 5 0 80 58 33
3 5 0 80 58 33
4 5 0 80 58 33
-3 -7 1 136 65 46
5 -7 1 136 65 46
-6 -5 1 135 138 130
-3 -5 1 136 65 46
5 -5 1 136 65 46
-1 -4 1 80 58 33
3 -4 1 80 58 33
0 -3 1 57 38 19
1 -3 1 57 38 19
2 -3 1 57 38 19
-4 -2 1 80 58 33
-3 -2 1 80 58 33
-2 -2 1 80 58 33
-1 -2 1 80 58 33
3 -2 1 80 58 33
4 -2 1 80 58 33
5 -2 1 80 58 33
-5 -1 1 80 58 33
-4 -1 1 80 58 33
5 -1 1 80 58 33
-6 0 1 80 58 33
5 0 1 80 58 33
-6 1 1 80 58 33
5 1 1 80 58 33
-5 2 1 80 58 33
5 2 1 80 58 33
-4 3 1 80 58 33
5 3 1 80 58 33
-4 4 1 80 58 33
-3 4 1 80 58 33
-2 4 1 255 225 0
-1 4 1 255 225 0
0 4 1 80 58 33
1 4 1 80 58 33
2 4 1 80 58 33
3 4 1 255 225 0
4 4 1 255 225 0
5 4 1 80 58 33
-3 -7 2 255 225 0
5 -7 2 255 225 0
-7 -6 2 206 96 200
-6 -6 2 206 96 200
-5 -6 2 134 60 157
-7 -5 2 134 60 157
-6 -5 2 206 96 200
-5 -5 2 206 96 200
-7 -4 2 206 96 200
-6 -4 2 206 96 200
-1 -4 2 46 127 142
3 -4 2 46 127 142
-1 -3 2 46 127 142
0 -3 2 57 38 19
1 -3 2 57 38 19
2 -3 2 57 38 19
3 -3 2 46 127 142
-4 -2 2 80 58 33
-3 -2 2 80 58 33
-2 -2 2 80 58 33
-1 -2 2 80 58 33
3 -2 2 80 58 33
4 -2 2 80 58 33
5 -2 2 80 58 33
-5 -1 2 80 58 33
-4 -1 2 80 58 33
5 -1 2 80 58 33
-6 0 2 80 58 33
5 0 2 80 58 33
-6 1 2 80 58 33
5 1 2 80 58 33
-5 2 2 80 58 33
5 2 2 80 58 33
-4 3 2 80 58 33
5 3 2 80 58 33
-4 4 2 80 58 33
-3 4 2 80 58 33
-2 4 2 255 225 0
-1 4 2 255 225 0
0 4 2 80 58 33
1 4 2 80 58 33
2 4 2 80 58 33
3 4 2 255 225 0
4 4 2 255 225 0
5 4 2 80 58 33
0 -4 3 46 127 142
2 -4 3 68 160 183
0 -3 3 57 38 19
1 -3 3 57 38 19
2 -3 3 46 127 142
-4 -2 3 80 58 33
-3 -2 3 80 58 33
-2 -2 3 80 58 33
-1 -2 3 80 58 33
3 -2 3 80 58 33
4 -2 3 80 58 33
5 -2 3 80 58 33
-5 -1 3 80 58 33
-4 -1 3 80 58 33
5 -1 3 255 225 0
-6 0 3 80 58 33
5 0 3 255 225 0
-6 1 3 80 58 33
5 1 3 80 58 33
-5 2 3 80 58 33
5 2 3 255 225 0
-4 3 3 80 58 33
5 3 3 255 225 0
-4 4 3 80 58 33
-3 4 3 80 58 33
-2 4 3 80 58 33
-1 4 3 80 58 33
0 4 3 80 58 33
1 4 3 80 58 33
2 4 3 80 58 33
3 4 3 80 58 33
4 4 3 80 58 33
5 4 3 80 58 33
1 -4 4 46 127 142
-4 -3 4 46 127 142
-3 -3 4 68 160 183
-2 -3 4 46 127 142
-1 -3 4 46 127 142
0 -3 4 46 127 142
1 -3 4 46 127 142
2 -3 4 46 127 142
3 -3 4 46 127 142
4 -3 4 68 160 183
5 -3 4 46 127 142
6 -3 4 46 127 142
-4 -2 4 80 58 33
-3 -2 4 80 58 33
-2 -2 4 134 60 157
-1 -2 4 134 60 157
0 -2 4 134 60 157
1 -2 4 134 60 157
2 -2 4 134 60 157
3 -2 4 134 60 157
4 -2 4 134 60 157
5 -2 4 134 60 157
6 -2 4 46 127 142
-5 -1 4 80 58 33
-4 -1 4 80 58 33
5 -1 4 255 225 0
-6 0 4 80 58 33
5 0 4 255 225 0
-6 1 4 80 58 33
5 1 4 80 58 33
-5 2 4 80 58 33
5 2 4 255 225 0
-4 3 4 80 58 33
5 3 4 255 225 0
-4 4 4 46 127 142
-3 4 4 134 60 157
-2 4 4 134 60 157
-1 4 4 134 60 157
0 4 4 134 60 157
1 4 4 134 60 157
2 4 4 134 60 157
3 4 4 134 60 157
4 4 4 134 60 157
5 4 4 68 160 183
-4 5 4 46 127 142
-3 5 4 68 160 183
-2 5 4 46 127 142
-1 5 4 46 127 142
0 5 4 46 127 142
1 5 4 46 127 142
2 5 4 46 127 142
3 5 4 46 127 142
4 5 4 46 127 142
5 5 4 68 160 183
6 5 4 46 127 142
-4 -2 5 80 58 33
-3 -2 5 80 58 33
-2 -2 5 46 127 142
-1 -2 5 68 160 183
0 -2 5 46 127 142
1 -2 5 46 127 142
2 -2 5 68 160 183
3 -2 5 46 127 142
4 -2 5 46 127 142
5 -2 5 68 160 183
6 -2 5 46 127 142
-5 -1 5 80 58 33
-4 -1 5 80 58 33
5 -1 5 80 58 33
6 -1 5 80 58 33
-6 0 5 80 58 33
5 0 5 80 58 33
6 0 5 80 58 33
-6 1 5 80 58 33
5 1 5 80 58 33
-5 2 5 80 58 33
5 2 5 80 58 33
6 2 5 80 58 33
-4 3 5 80 58 33
5 3 5 80 58 33
6 3 5 80 58 33
-4 4 5 68 160 183
-3 4 5 46 127 142
-2 4 5 46 127 142
-1 4 5 46 127 142
0 4 5 68 160 183
1 4 5 46 127 142
2 4 5 46 127 142
3 4 5 68 160 183
4 4 5 46 127 142
5 4 5 68 160 183
6 4 5 46 127 142
-4 -2 6 80 58 33
-3 -2 6 80 58 33
-5 -1 6 80 58 33
-3 -1 6 80 58 33
-2 -1 6 46 127 142
-1 -1 6 46 127 142
0 -1 6 46 127 142
1 -1 6 68 160 183
2 -1 6 46 127 142
3 -1 6 46 127 142
4 -1 6 68 160 183
5 -1 6 46 127 142
6 -1 6 68 160 183
-8 0 6 255 225 0
-6 0 6 80 58 33
5 0 6 80 58 33
-6 1 6 80 58 33
5 1 6 80 58 33
-5 2 6 80 58 33
5 2 6 80 58 33
-4 3 6 80 58 33
-3 3 6 80 58 33
-2 3 6 68 160 183
-1 3 6 68 160 183
0 3 6 46 127 142
1 3 6 68 160 183
2 3 6 46 127 142
3 3 6 46 127 142
4 3 6 68 160 183
5 3 6 46 127 142
6 3 6 68 160 183
-4 -2 7 255 225 0
-3 -2 7 255 225 0
-5 -1 7 80 58 33
-4 -1 7 80 58 33
-3 -1 7 80 58 33
-2 -1 7 80 58 33
-8 0 7 80 58 33
-7 0 7 80 58 33
-6 0 7 80 58 33
-1 0 7 68 160 183
0 0 7 46 127 142
1 0 7 46 127 142
2 0 7 68 160 183
3 0 7 46 127 142
4 0 7 46 127 142
5 0 7 68 160 183
6 0 7 68 160 183
-6 1 7 80 58 33
4 1 7 46 127 142
5 1 7 80 58 33
-5 2 7 80 58 33
-2 2 7 68 160 183
-1 2 7 68 160 183
0 2 7 46 127 142
1 2 7 68 160 183
2 2 7 46 127 142
3 2 7 68 160 183
4 2 7 46 127 142
5 2 7 46 127 142
6 2 7 68 160 183
-4 3 7 80 58 33
-3 3 7 80 58 33
4 3 7 80 58 33
5 3 7 80 58 33
-4 -2 8 80 58 33
-3 -2 8 80 58 33
-5 -1 8 80 58 33
-4 -1 8 80 58 33
-3 -1 8 80 58 33
-2 -1 8 80 58 33
-6 0 8 80 58 33
-2 0 8 80 58 33
-6 1 8 80 58 33
-2 1 8 86 86 86
-1 1 8 46 127 142
0 1 8 46 127 142
1 1 8 46 127 142
2 1 8 46 127 142
3 1 8 68 160 183
4 1 8 46 127 142
5 1 8 46 127 142
6 1 8 68 160 183
-5 2 8 80 58 33
-2 2 8 80 58 33
-4 3 8 80 58 33
-3 3 8 80 58 33
4 3 8 80 58 33
5 3 8 80 58 33
-4 -1 9 80 58 33
-3 -1 9 80 58 33
-5 0 9 80 58 33
-4 0 9 80 58 33
-3 0 9 80 58 33
-2 0 9 80 58 33
-5 1 9 80 58 33
-4 1 9 80 58 33
-3 1 9 80 58 33
-2 1 9 80 58 33
-4 2 9 80 58 33
-3 2 9 80 58 33
4 3 9 80 58 33
5 3 9 80 58 33
-4 -3 10 46 127 142
-3 -3 10 46 127 142
-5 -2 10 46 127 142
-4 -2 10 46 127 142
-3 -2 10 46 127 142
-2 -2 10 46 127 142
-6 -1 10 46 127 142
-5 -1 10 46 127 142
-4 -1 10 134 60 157
-3 -1 10 46 127 142
-2 -1 10 46 127 142
-1 -1 10 46 127 142
-7 0 10 68 160 183
-6 0 10 46 127 142
-5 0 10 46 127 142
-4 0 10 46 127 142
-3 0 10 46 127 142
-2 0 10 46 127 142
-1 0 10 46 127 142
0 0 10 46 127 142
-7 1 10 46 127 142
-6 1 10 46 127 142
-5 1 10 68 160 183
-4 1 10 68 160 183
-3 1 10 46 127 142
-2 1 10 46 127 142
-1 1 10 46 127 142
0 1 10 46 127 142
-6 2 10 46 127 142
-5 2 10 68 160 183
-4 2 10 68 160 183
-3 2 10 46 127 142
-2 2 10 46 127 142
-1 2 10 46 127 142
-5 3 10 68 160 183
-4 3 10 68 160 183
-3 3 10 46 127 142
-2 3 10 46 127 142
-4 4 10 46 127 142
-3 4 10 46 127 142
-4 -2 11 68 160 183
-3 -2 11 46 127 142
-5 -1 11 68 160 183
-4 -1 11 68 160 183
-3 -1 11 68 160 183
-2 -1 11 68 160 183
-6 0 11 68 160 183
-5 0 11 68 160 183
-4 0 11 68 160 183
-3 0 11 68 160 183
-2 0 11 68 160 183
-1 0 11 46 127 142
-6 1 11 46 127 142
-5 1 11 68 160 183
-4 1 11 68 160 183
-3 1 11 46 127 142
-2 1 11 46 127 142
-1 1 11 68 160 183
-5 2 11 68 160 183
-4 2 11 68 160 183
-3 2 11 46 127 142
-2 2 11 68 160 183
-4 3 11 68 160 183
-3 3 11 46 127 142
-4 -1 12 46 127 142
-3 -1 12 68 160 183
-5 0 12 46 127 142
-4 0 12 46 127 142
-3 0 12 68 160 183
-2 0 12 68 160 183
-5 1 12 68 160 183
-4 1 12 68 160 183
-3 1 12 46 127 142
-2 1 12 46 127 142
-4 2 12 68 160 183
-3 2 12 46 127 142
-4 0 13 46 127 142
-3 0 13 68 160 183
-4 1 13 68 160 183
-3 1 13 46 127 142
