ply
format ascii 1.0
comment : MagicaVoxel @ Ephtracy
element vertex 999
property float x
property float y
property float z
property uchar red
property uchar green
property uchar blue
end_header
-5 -6 0 57 38 19
-4 -6 0 198 147 70
-3 -6 0 198 147 70
-2 -6 0 57 38 19
-1 -6 0 198 147 70
0 -6 0 198 147 70
1 -6 0 57 38 19
2 -6 0 198 147 70
3 -6 0 198 147 70
4 -6 0 57 38 19
-5 -5 0 198 147 70
4 -5 0 198 147 70
-5 -4 0 198 147 70
4 -4 0 198 147 70
-5 -3 0 57 38 19
5 -3 0 198 147 70
6 -3 0 57 38 19
-5 -2 0 198 147 70
5 -2 0 151 112 58
-5 -1 0 198 147 70
5 -1 0 151 112 58
-5 0 0 198 147 70
5 0 0 151 112 58
-5 1 0 57 38 19
5 1 0 198 147 70
6 1 0 57 38 19
-5 2 0 198 147 70
4 2 0 57 38 19
-5 3 0 198 147 70
4 3 0 198 147 70
-5 4 0 198 147 70
4 4 0 198 147 70
-5 5 0 57 38 19
-4 5 0 198 147 70
-3 5 0 198 147 70
-2 5 0 198 147 70
-1 5 0 54 54 54
0 5 0 54 54 54
1 5 0 198 147 70
2 5 0 198 147 70
3 5 0 198 147 70
4 5 0 57 38 19
-2 6 0 57 38 19
1 6 0 57 38 19
-5 -6 1 80 58 33
-4 -6 1 198 147 70
-3 -6 1 198 147 70
-2 -6 1 80 58 33
-1 -6 1 198 147 70
0 -6 1 198 147 70
1 -6 1 80 58 33
2 -6 1 198 147 70
3 -6 1 198 147 70
4 -6 1 80 58 33
-5 -5 1 198 147 70
4 -5 1 198 147 70
-5 -4 1 198 147 70
4 -4 1 198 147 70
-5 -3 1 80 58 33
5 -3 1 198 147 70
6 -3 1 80 58 33
-5 -2 1 198 147 70
5 -2 1 151 112 58
-5 -1 1 198 147 70
5 -1 1 151 112 58
-5 0 1 198 147 70
5 0 1 151 112 58
-5 1 1 80 58 33
5 1 1 198 147 70
6 1 1 80 58 33
-5 2 1 198 147 70
4 2 1 80 58 33
-5 3 1 198 147 70
4 3 1 198 147 70
-5 4 1 198 147 70
4 4 1 198 147 70
-5 5 1 80 58 33
-4 5 1 198 147 70
-3 5 1 198 147 70
-2 5 1 198 147 70
-1 5 1 54 54 54
0 5 1 54 54 54
1 5 1 198 147 70
2 5 1 198 147 70
3 5 1 198 147 70
4 5 1 80 58 33
-2 6 1 80 58 33
1 6 1 80 58 33
-5 -6 2 80 58 33
-4 -6 2 80 58 33
-3 -6 2 80 58 33
-2 -6 2 80 58 33
-1 -6 2 80 58 33
0 -6 2 80 58 33
1 -6 2 80 58 33
2 -6 2 80 58 33
3 -6 2 80 58 33
4 -6 2 80 58 33
-5 -5 2 80 58 33
4 -5 2 57 38 19
-5 -4 2 80 58 33
4 -4 2 57 38 19
-5 -3 2 80 58 33
5 -3 2 80 58 33
6 -3 2 80 58 33
-5 -2 2 80 58 33
5 -2 2 151 112 58
-5 -1 2 80 58 33
5 -1 2 151 112 58
-5 0 2 80 58 33
5 0 2 151 112 58
-5 1 2 80 58 33
5 1 2 198 147 70
6 1 2 57 38 19
-5 2 2 80 58 33
4 2 2 57 38 19
-5 3 2 80 58 33
4 3 2 57 38 19
-5 4 2 80 58 33
4 4 2 80 58 33
-5 5 2 80 58 33
-4 5 2 80 58 33
-3 5 2 57 38 19
-2 5 2 198 147 70
-1 5 2 54 54 54
0 5 2 54 54 54
1 5 2 198 147 70
2 5 2 57 38 19
3 5 2 80 58 33
4 5 2 80 58 33
-2 6 2 80 58 33
1 6 2 80 58 33
-1 -7 3 136 65 46
0 -7 3 136 65 46
-5 -6 3 80 58 33
-4 -6 3 198 147 70
-3 -6 3 198 147 70
-2 -6 3 80 58 33
-1 -6 3 198 147 70
0 -6 3 198 147 70
1 -6 3 80 58 33
2 -6 3 198 147 70
3 -6 3 198 147 70
4 -6 3 80 58 33
-5 -5 3 198 147 70
4 -5 3 198 147 70
-5 -4 3 198 147 70
4 -4 3 198 147 70
-5 -3 3 80 58 33
5 -3 3 198 147 70
6 -3 3 57 38 19
-5 -2 3 198 147 70
5 -2 3 151 112 58
-5 -1 3 198 147 70
5 -1 3 151 112 58
-5 0 3 198 147 70
5 0 3 151 112 58
-5 1 3 80 58 33
5 1 3 198 147 70
6 1 3 57 38 19
-5 2 3 198 147 70
4 2 3 57 38 19
5 2 3 181 88 63
6 2 3 136 65 46
-5 3 3 198 147 70
4 3 3 198 147 70
5 3 3 136 65 46
6 3 3 136 65 46
-5 4 3 198 147 70
4 4 3 198 147 70
-5 5 3 80 58 33
-4 5 3 198 147 70
-3 5 3 198 147 70
-2 5 3 198 147 70
-1 5 3 54 54 54
0 5 3 54 54 54
1 5 3 198 147 70
2 5 3 198 147 70
3 5 3 198 147 70
4 5 3 80 58 33
-3 6 3 136 65 46
-2 6 3 136 65 46
1 6 3 136 65 46
2 6 3 181 88 63
-5 -6 4 80 58 33
-4 -6 4 198 147 70
-3 -6 4 198 147 70
-2 -6 4 80 58 33
1 -6 4 80 58 33
2 -6 4 198 147 70
3 -6 4 198 147 70
4 -6 4 80 58 33
-5 -5 4 198 147 70
-1 -5 4 54 54 54
0 -5 4 54 54 54
4 -5 4 198 147 70
5 -5 4 136 65 46
6 -5 4 136 65 46
-5 -4 4 198 147 70
4 -4 4 198 147 70
5 -4 4 181 88 63
6 -4 4 136 65 46
-5 -3 4 80 58 33
5 -3 4 198 147 70
6 -3 4 198 147 70
7 -3 4 57 38 19
-5 -2 4 198 147 70
5 -2 4 151 112 58
6 -2 4 57 38 19
-5 -1 4 198 147 70
5 -1 4 151 112 58
6 -1 4 57 38 19
-5 0 4 198 147 70
5 0 4 151 112 58
6 0 4 57 38 19
-5 1 4 80 58 33
5 1 4 198 147 70
6 1 4 198 147 70
7 1 4 57 38 19
-5 2 4 198 147 70
4 2 4 80 58 33
7 2 4 136 65 46
-5 3 4 198 147 70
4 3 4 198 147 70
7 3 4 181 88 63
-5 4 4 198 147 70
4 4 4 198 147 70
-5 5 4 80 58 33
-4 5 4 198 147 70
-3 5 4 198 147 70
-2 5 4 198 147 70
-1 5 4 198 147 70
0 5 4 198 147 70
1 5 4 198 147 70
2 5 4 198 147 70
3 5 4 198 147 70
4 5 4 80 58 33
-2 6 4 181 88 63
-1 6 4 136 65 46
0 6 4 136 65 46
1 6 4 136 65 46
-5 -6 5 80 58 33
-4 -6 5 198 147 70
-3 -6 5 198 147 70
-2 -6 5 80 58 33
1 -6 5 80 58 33
2 -6 5 198 147 70
3 -6 5 198 147 70
4 -6 5 80 58 33
-5 -5 5 198 147 70
-1 -5 5 54 54 54
0 -5 5 54 54 54
4 -5 5 198 147 70
6 -5 5 136 65 46
7 -5 5 136 65 46
-5 -4 5 198 147 70
4 -4 5 198 147 70
6 -4 5 136 65 46
7 -4 5 181 88 63
-6 -3 5 80 58 33
5 -3 5 198 147 70
6 -3 5 198 147 70
7 -3 5 198 147 70
-6 -2 5 80 58 33
5 -2 5 57 38 19
7 -2 5 151 112 58
-6 -1 5 80 58 33
5 -1 5 57 38 19
7 -1 5 151 112 58
-6 0 5 80 58 33
5 0 5 57 38 19
7 0 5 151 112 58
-6 1 5 80 58 33
5 1 5 198 147 70
6 1 5 198 147 70
7 1 5 198 147 70
-5 2 5 198 147 70
4 2 5 80 58 33
-5 3 5 198 147 70
4 3 5 198 147 70
-5 4 5 198 147 70
4 4 5 198 147 70
-5 5 5 80 58 33
-4 5 5 198 147 70
-3 5 5 198 147 70
-2 5 5 80 58 33
-1 5 5 198 147 70
0 5 5 198 147 70
1 5 5 80 58 33
2 5 5 198 147 70
3 5 5 198 147 70
4 5 5 80 58 33
-1 6 5 181 88 63
0 6 5 136 65 46
-5 -6 6 80 58 33
-4 -6 6 80 58 33
-3 -6 6 80 58 33
-2 -6 6 80 58 33
-1 -6 6 80 58 33
0 -6 6 80 58 33
1 -6 6 80 58 33
2 -6 6 80 58 33
3 -6 6 80 58 33
4 -6 6 80 58 33
-5 -5 6 80 58 33
4 -5 6 80 58 33
-5 -4 6 80 58 33
4 -4 6 80 58 33
-7 -3 6 80 58 33
-6 -3 6 80 58 33
5 -3 6 80 58 33
6 -3 6 80 58 33
7 -3 6 80 58 33
-7 -2 6 198 147 70
-7 -1 6 136 65 46
-7 0 6 198 147 70
-7 1 6 80 58 33
-6 1 6 80 58 33
5 1 6 80 58 33
6 1 6 80 58 33
7 1 6 80 58 33
-5 2 6 80 58 33
4 2 6 80 58 33
-5 3 6 80 58 33
4 3 6 80 58 33
-5 4 6 80 58 33
4 4 6 80 58 33
-5 5 6 80 58 33
-4 5 6 80 58 33
-3 5 6 80 58 33
-2 5 6 80 58 33
-1 5 6 80 58 33
0 5 6 80 58 33
1 5 6 80 58 33
2 5 6 80 58 33
3 5 6 80 58 33
4 5 6 80 58 33
-1 -7 7 136 65 46
0 -7 7 136 65 46
-5 -6 7 80 58 33
-4 -6 7 198 147 70
-3 -6 7 198 147 70
-2 -6 7 80 58 33
-1 -6 7 198 147 70
0 -6 7 198 147 70
1 -6 7 80 58 33
2 -6 7 198 147 70
3 -6 7 198 147 70
4 -6 7 80 58 33
-5 -5 7 198 147 70
4 -5 7 198 147 70
-5 -4 7 198 147 70
4 -4 7 198 147 70
-7 -3 7 80 58 33
-6 -3 7 198 147 70
5 -3 7 198 147 70
6 -3 7 198 147 70
7 -3 7 198 147 70
-7 -2 7 198 147 70
-6 -1 7 255 225 0
-7 0 7 198 147 70
-7 1 7 80 58 33
-6 1 7 198 147 70
5 1 7 198 147 70
6 1 7 198 147 70
7 1 7 198 147 70
-5 2 7 198 147 70
4 2 7 198 147 70
5 2 7 198 147 70
-5 3 7 198 147 70
4 3 7 198 147 70
5 3 7 198 147 70
-5 4 7 198 147 70
4 4 7 198 147 70
-5 5 7 80 58 33
-4 5 7 198 147 70
-3 5 7 198 147 70
-2 5 7 80 58 33
-1 5 7 198 147 70
0 5 7 198 147 70
1 5 7 80 58 33
2 5 7 198 147 70
3 5 7 198 147 70
4 5 7 80 58 33
-1 6 7 136 65 46
0 6 7 136 65 46
-5 -6 8 80 58 33
-4 -6 8 198 147 70
-3 -6 8 198 147 70
-2 -6 8 80 58 33
1 -6 8 80 58 33
2 -6 8 198 147 70
3 -6 8 198 147 70
4 -6 8 80 58 33
-5 -5 8 198 147 70
-1 -5 8 54 54 54
0 -5 8 54 54 54
4 -5 8 198 147 70
-5 -4 8 198 147 70
4 -4 8 198 147 70
-7 -3 8 80 58 33
-6 -3 8 80 58 33
5 -3 8 198 147 70
6 -3 8 198 147 70
7 -3 8 198 147 70
-7 -2 8 198 147 70
-6 -1 8 255 225 0
-7 0 8 198 147 70
-7 1 8 80 58 33
-6 1 8 80 58 33
5 1 8 57 38 19
6 1 8 198 147 70
7 1 8 198 147 70
-5 2 8 198 147 70
4 2 8 57 38 19
5 2 8 198 147 70
6 2 8 198 147 70
7 2 8 198 147 70
-5 3 8 198 147 70
4 3 8 198 147 70
5 3 8 198 147 70
6 3 8 198 147 70
7 3 8 198 147 70
-5 4 8 198 147 70
-1 4 8 255 225 0
0 4 8 255 225 0
4 4 8 198 147 70
5 4 8 57 38 19
6 4 8 57 38 19
7 4 8 57 38 19
-5 5 8 80 58 33
-4 5 8 198 147 70
-3 5 8 198 147 70
-2 5 8 80 58 33
1 5 8 80 58 33
2 5 8 198 147 70
3 5 8 198 147 70
4 5 8 80 58 33
-5 -6 9 80 58 33
-4 -6 9 198 147 70
-3 -6 9 198 147 70
-2 -6 9 80 58 33
1 -6 9 80 58 33
2 -6 9 198 147 70
3 -6 9 198 147 70
4 -6 9 80 58 33
-5 -5 9 198 147 70
-1 -5 9 54 54 54
0 -5 9 54 54 54
4 -5 9 198 147 70
-5 -4 9 198 147 70
4 -4 9 198 147 70
-7 -3 9 57 38 19
-6 -3 9 198 147 70
5 -3 9 198 147 70
6 -3 9 198 147 70
7 -3 9 198 147 70
-7 -2 9 80 58 33
-7 -1 9 80 58 33
-7 0 9 80 58 33
7 0 9 54 54 54
-7 1 9 80 58 33
-6 1 9 198 147 70
5 1 9 80 58 33
6 1 9 198 147 70
-5 2 9 198 147 70
4 2 9 198 147 70
-5 3 9 198 147 70
4 3 9 198 147 70
-5 4 9 198 147 70
-1 4 9 255 225 0
0 4 9 255 225 0
4 4 9 198 147 70
5 4 9 80 58 33
6 4 9 80 58 33
7 4 9 80 58 33
-5 5 9 80 58 33
-4 5 9 198 147 70
-3 5 9 198 147 70
-2 5 9 80 58 33
1 5 9 80 58 33
2 5 9 198 147 70
3 5 9 198 147 70
4 5 9 80 58 33
-5 -6 10 80 58 33
-4 -6 10 80 58 33
-3 -6 10 80 58 33
-2 -6 10 80 58 33
-1 -6 10 80 58 33
0 -6 10 80 58 33
1 -6 10 80 58 33
2 -6 10 80 58 33
3 -6 10 80 58 33
4 -6 10 80 58 33
-5 -5 10 80 58 33
4 -5 10 80 58 33
-5 -4 10 80 58 33
4 -4 10 80 58 33
-7 -3 10 57 38 19
-6 -3 10 198 147 70
5 -3 10 80 58 33
6 -3 10 80 58 33
7 -3 10 80 58 33
-7 -2 10 198 147 70
-7 -1 10 136 65 46
-7 0 10 198 147 70
7 0 10 54 54 54
-7 1 10 80 58 33
-6 1 10 198 147 70
5 1 10 80 58 33
6 1 10 198 147 70
-5 2 10 80 58 33
4 2 10 198 147 70
-5 3 10 80 58 33
4 3 10 198 147 70
-5 4 10 80 58 33
4 4 10 198 147 70
5 4 10 80 58 33
-5 5 10 80 58 33
-4 5 10 80 58 33
-3 5 10 80 58 33
-2 5 10 80 58 33
-1 5 10 80 58 33
0 5 10 80 58 33
1 5 10 80 58 33
2 5 10 80 58 33
3 5 10 80 58 33
4 5 10 80 58 33
-1 -7 11 136 65 46
0 -7 11 136 65 46
-5 -6 11 57 38 19
-4 -6 11 198 147 70
-3 -6 11 198 147 70
-2 -6 11 80 58 33
-1 -6 11 198 147 70
0 -6 11 198 147 70
1 -6 11 80 58 33
2 -6 11 198 147 70
3 -6 11 198 147 70
4 -6 11 57 38 19
-5 -5 11 151 112 58
4 -5 11 151 112 58
-5 -4 11 151 112 58
4 -4 11 151 112 58
-7 -3 11 57 38 19
-6 -3 11 198 147 70
5 -3 11 151 112 58
6 -3 11 198 147 70
7 -3 11 198 147 70
-7 -2 11 198 147 70
-6 -1 11 255 225 0
-7 0 11 198 147 70
-7 1 11 80 58 33
-6 1 11 151 112 58
5 1 11 57 38 19
6 1 11 198 147 70
7 1 11 198 147 70
-5 2 11 151 112 58
4 2 11 151 112 58
-5 3 11 151 112 58
4 3 11 151 112 58
-5 4 11 151 112 58
4 4 11 151 112 58
-5 5 11 57 38 19
-4 5 11 198 147 70
-3 5 11 198 147 70
-2 5 11 80 58 33
-1 5 11 198 147 70
0 5 11 198 147 70
1 5 11 80 58 33
2 5 11 198 147 70
3 5 11 198 147 70
4 5 11 57 38 19
-6 -7 12 136 65 46
-5 -7 12 136 65 46
4 -7 12 136 65 46
5 -7 12 136 65 46
-6 -6 12 136 65 46
-5 -6 12 136 65 46
-4 -6 12 57 38 19
-3 -6 12 198 147 70
-2 -6 12 80 58 33
1 -6 12 80 58 33
2 -6 12 198 147 70
3 -6 12 57 38 19
4 -6 12 136 65 46
5 -6 12 181 88 63
-6 -5 12 136 65 46
-5 -5 12 136 65 46
-1 -5 12 255 225 0
0 -5 12 255 225 0
4 -5 12 136 65 46
5 -5 12 136 65 46
-6 -4 12 136 65 46
-5 -4 12 136 65 46
4 -4 12 57 38 19
5 -4 12 136 65 46
-7 -3 12 57 38 19
-6 -3 12 136 65 46
6 -3 12 198 147 70
7 -3 12 198 147 70
-7 -2 12 198 147 70
-6 -1 12 255 225 0
-7 0 12 198 147 70
-7 1 12 80 58 33
-6 1 12 136 65 46
5 1 12 57 38 19
6 1 12 198 147 70
7 1 12 198 147 70
-6 2 12 136 65 46
-5 2 12 136 65 46
4 2 12 136 65 46
5 2 12 136 65 46
-6 3 12 181 88 63
-5 3 12 136 65 46
4 3 12 136 65 46
5 3 12 136 65 46
-6 4 12 136 65 46
-5 4 12 136 65 46
-1 4 12 54 54 54
0 4 12 54 54 54
4 4 12 136 65 46
5 4 12 136 65 46
-6 5 12 136 65 46
-5 5 12 136 65 46
-4 5 12 57 38 19
-3 5 12 198 147 70
-2 5 12 80 58 33
1 5 12 80 58 33
2 5 12 198 147 70
3 5 12 57 38 19
4 5 12 136 65 46
5 5 12 136 65 46
-6 6 12 181 88 63
-5 6 12 136 65 46
4 6 12 136 65 46
5 6 12 136 65 46
-5 -7 13 136 65 46
-4 -7 13 136 65 46
3 -7 13 136 65 46
4 -7 13 136 65 46
-5 -6 13 181 88 63
-4 -6 13 198 147 70
-3 -6 13 151 112 58
-2 -6 13 80 58 33
1 -6 13 80 58 33
2 -6 13 151 112 58
3 -6 13 136 65 46
4 -6 13 136 65 46
-5 -5 13 136 65 46
-1 -5 13 255 225 0
0 -5 13 255 225 0
4 -5 13 136 65 46
-5 -4 13 136 65 46
4 -4 13 136 65 46
-7 -3 13 57 38 19
-6 -3 13 151 112 58
4 -3 13 136 65 46
5 -3 13 57 38 19
6 -3 13 57 38 19
7 -3 13 57 38 19
-7 -2 13 198 147 70
-7 -1 13 198 147 70
-7 0 13 198 147 70
-7 1 13 57 38 19
-6 1 13 151 112 58
5 1 13 57 38 19
6 1 13 57 38 19
7 1 13 57 38 19
-5 2 13 136 65 46
4 2 13 136 65 46
-5 3 13 136 65 46
4 3 13 181 88 63
-5 4 13 181 88 63
-1 4 13 54 54 54
0 4 13 54 54 54
4 4 13 136 65 46
-5 5 13 136 65 46
-4 5 13 136 65 46
-3 5 13 151 112 58
-2 5 13 80 58 33
1 5 13 80 58 33
2 5 13 151 112 58
3 5 13 136 65 46
4 5 13 136 65 46
-5 6 13 136 65 46
-4 6 13 136 65 46
3 6 13 136 65 46
4 6 13 181 88 63
-4 -7 14 136 65 46
-3 -7 14 136 65 46
2 -7 14 136 65 46
3 -7 14 136 65 46
-4 -6 14 136 65 46
-3 -6 14 136 65 46
-2 -6 14 57 38 19
-1 -6 14 198 147 70
0 -6 14 198 147 70
1 -6 14 57 38 19
2 -6 14 136 65 46
3 -6 14 181 88 63
-4 -5 14 136 65 46
3 -5 14 136 65 46
-7 -4 14 181 88 63
-6 -4 14 136 65 46
-5 -4 14 181 88 63
-4 -4 14 136 65 46
3 -4 14 136 65 46
4 -4 14 181 88 63
5 -4 14 181 88 63
6 -4 14 136 65 46
7 -4 14 136 65 46
-7 -3 14 136 65 46
-6 -3 14 198 147 70
-7 -2 14 57 38 19
-7 -1 14 57 38 19
-7 0 14 57 38 19
-7 1 14 136 65 46
-6 1 14 198 147 70
3 1 14 136 65 46
5 1 14 136 65 46
6 1 14 136 65 46
7 1 14 136 65 46
-7 2 14 136 65 46
-6 2 14 136 65 46
-5 2 14 181 88 63
-4 2 14 181 88 63
3 2 14 181 88 63
4 2 14 181 88 63
5 2 14 181 88 63
6 2 14 136 65 46
7 2 14 136 65 46
-4 3 14 136 65 46
3 3 14 136 65 46
-4 4 14 136 65 46
3 4 14 181 88 63
-4 5 14 136 65 46
-3 5 14 136 65 46
-2 5 14 57 38 19
-1 5 14 198 147 70
0 5 14 198 147 70
1 5 14 57 38 19
2 5 14 136 65 46
3 5 14 136 65 46
-4 6 14 181 88 63
-3 6 14 136 65 46
2 6 14 136 65 46
3 6 14 136 65 46
-3 -7 15 181 88 63
-2 -7 15 136 65 46
1 -7 15 136 65 46
2 -7 15 136 65 46
-3 -6 15 136 65 46
-2 -6 15 136 65 46
-1 -6 15 151 112 58
0 -6 15 151 112 58
1 -6 15 136 65 46
2 -6 15 136 65 46
-4 -5 15 54 54 54
-3 -5 15 136 65 46
-2 -5 15 136 65 46
-1 -5 15 136 65 46
0 -5 15 136 65 46
1 -5 15 136 65 46
2 -5 15 136 65 46
-3 -4 15 54 54 54
-2 -4 15 136 65 46
-1 -4 15 136 65 46
0 -4 15 136 65 46
1 -4 15 136 65 46
2 -4 15 181 88 63
-7 -3 15 136 65 46
-6 -3 15 136 65 46
-5 -3 15 181 88 63
-4 -3 15 136 65 46
-3 -3 15 181 88 63
-2 -3 15 136 65 46
-1 -3 15 136 65 46
0 -3 15 136 65 46
1 -3 15 136 65 46
2 -3 15 181 88 63
3 -3 15 136 65 46
4 -3 15 136 65 46
5 -3 15 136 65 46
6 -3 15 136 65 46
7 -3 15 136 65 46
-7 -2 15 198 147 70
-6 -2 15 198 147 70
-5 -2 15 198 147 70
-4 -2 15 198 147 70
-3 -2 15 198 147 70
-2 -2 15 198 147 70
-1 -2 15 198 147 70
0 -2 15 136 65 46
1 -2 15 136 65 46
2 -2 15 136 65 46
-7 -1 15 198 147 70
-6 -1 15 198 147 70
-5 -1 15 198 147 70
-4 -1 15 198 147 70
-3 -1 15 198 147 70
-2 -1 15 198 147 70
-1 -1 15 198 147 70
0 -1 15 136 65 46
1 -1 15 136 65 46
2 -1 15 136 65 46
-7 0 15 198 147 70
-6 0 15 136 65 46
-5 0 15 136 65 46
-4 0 15 136 65 46
-3 0 15 136 65 46
-2 0 15 136 65 46
-1 0 15 136 65 46
0 0 15 136 65 46
1 0 15 136 65 46
2 0 15 136 65 46
-7 1 15 181 88 63
-6 1 15 136 65 46
-5 1 15 181 88 63
-4 1 15 181 88 63
-3 1 15 136 65 46
-2 1 15 136 65 46
-1 1 15 136 65 46
0 1 15 136 65 46
1 1 15 136 65 46
2 1 15 181 88 63
3 1 15 136 65 46
4 1 15 181 88 63
5 1 15 136 65 46
6 1 15 181 88 63
7 1 15 136 65 46
-3 2 15 181 88 63
-2 2 15 136 65 46
-1 2 15 136 65 46
0 2 15 136 65 46
1 2 15 136 65 46
2 2 15 181 88 63
-3 3 15 136 65 46
-2 3 15 136 65 46
-1 3 15 136 65 46
0 3 15 136 65 46
1 3 15 136 65 46
2 3 15 136 65 46
-3 4 15 181 88 63
-2 4 15 136 65 46
-1 4 15 136 65 46
0 4 15 136 65 46
1 4 15 136 65 46
2 4 15 181 88 63
-3 5 15 136 65 46
-2 5 15 136 65 46
-1 5 15 151 112 58
0 5 15 151 112 58
1 5 15 136 65 46
2 5 15 136 65 46
-3 6 15 136 65 46
-2 6 15 136 65 46
1 6 15 136 65 46
2 6 15 136 65 46
-2 -7 16 136 65 46
-1 -7 16 136 65 46
0 -7 16 136 65 46
1 -7 16 136 65 46
-3 -6 16 86 86 86
-2 -6 16 136 65 46
-1 -6 16 136 65 46
0 -6 16 136 65 46
1 -6 16 136 65 46
-4 -5 16 54 54 54
-2 -5 16 136 65 46
-1 -5 16 136 65 46
0 -5 16 136 65 46
1 -5 16 136 65 46
-3 -4 16 86 86 86
-2 -4 16 136 65 46
-1 -4 16 136 65 46
0 -4 16 136 65 46
1 -4 16 181 88 63
-2 -3 16 181 88 63
-1 -3 16 136 65 46
0 -3 16 136 65 46
1 -3 16 136 65 46
-7 -2 16 136 65 46
-6 -2 16 181 88 63
-5 -2 16 136 65 46
-4 -2 16 181 88 63
-3 -2 16 181 88 63
-2 -2 16 136 65 46
-1 -2 16 136 65 46
0 -2 16 136 65 46
1 -2 16 136 65 46
2 -2 16 181 88 63
3 -2 16 181 88 63
4 -2 16 181 88 63
5 -2 16 136 65 46
6 -2 16 181 88 63
7 -2 16 181 88 63
-7 -1 16 198 147 70
-6 -1 16 198 147 70
-5 -1 16 198 147 70
-4 -1 16 198 147 70
-3 -1 16 198 147 70
-2 -1 16 198 147 70
-1 -1 16 198 147 70
0 -1 16 136 65 46
1 -1 16 136 65 46
-7 0 16 136 65 46
-6 0 16 181 88 63
-5 0 16 181 88 63
-4 0 16 136 65 46
-3 0 16 136 65 46
-2 0 16 181 88 63
-1 0 16 136 65 46
0 0 16 136 65 46
1 0 16 181 88 63
2 0 16 136 65 46
3 0 16 136 65 46
4 0 16 181 88 63
5 0 16 136 65 46
6 0 16 181 88 63
7 0 16 181 88 63
-2 1 16 181 88 63
-1 1 16 136 65 46
0 1 16 136 65 46
1 1 16 181 88 63
-2 2 16 136 65 46
-1 2 16 136 65 46
0 2 16 136 65 46
1 2 16 181 88 63
-2 3 16 181 88 63
-1 3 16 136 65 46
0 3 16 136 65 46
1 3 16 136 65 46
-2 4 16 181 88 63
-1 4 16 136 65 46
0 4 16 136 65 46
1 4 16 136 65 46
-2 5 16 181 88 63
-1 5 16 136 65 46
0 5 16 136 65 46
1 5 16 136 65 46
-2 6 16 136 65 46
-1 6 16 136 65 46
0 6 16 136 65 46
1 6 16 136 65 46
-1 -7 17 136 65 46
0 -7 17 181 88 63
-3 -6 17 54 54 54
-1 -6 17 181 88 63
0 -6 17 181 88 63
-4 -5 17 86 86 86
-3 -5 17 255 225 0
-2 -5 17 86 86 86
-1 -5 17 181 88 63
0 -5 17 181 88 63
-3 -4 17 54 54 54
-1 -4 17 136 65 46
0 -4 17 181 88 63
-1 -3 17 181 88 63
0 -3 17 181 88 63
-1 -2 17 181 88 63
0 -2 17 181 88 63
-7 -1 17 136 65 46
-6 -1 17 181 88 63
-5 -1 17 181 88 63
-4 -1 17 181 88 63
-3 -1 17 181 88 63
-2 -1 17 136 65 46
-1 -1 17 181 88 63
0 -1 17 181 88 63
1 -1 17 181 88 63
2 -1 17 136 65 46
3 -1 17 181 88 63
4 -1 17 181 88 63
5 -1 17 181 88 63
6 -1 17 181 88 63
7 -1 17 136 65 46
-1 0 17 136 65 46
0 0 17 181 88 63
-1 1 17 181 88 63
0 1 17 181 88 63
-1 2 17 181 88 63
0 2 17 181 88 63
-1 3 17 136 65 46
0 3 17 181 88 63
-1 4 17 136 65 46
0 4 17 181 88 63
-1 5 17 181 88 63
0 5 17 181 88 63
-1 6 17 136 65 46
0 6 17 181 88 63
-3 -6 18 86 86 86
-4 -5 18 54 54 54
-2 -5 18 54 54 54
-3 -4 18 54 54 54
-3 -6 19 86 86 86
-4 -5 19 86 86 86
-2 -5 19 86 86 86
-3 -4 19 86 86 86
