ply
format ascii 1.0
comment : MagicaVoxel @ Ephtracy
element vertex 574
property float x
property float y
property float z
property uchar red
property uchar green
property uchar blue
end_header
-3 -6 0 241 244 230
-1 -6 0 241 244 230
-5 -5 0 241 244 230
-4 -5 0 241 244 230
-3 -5 0 241 244 230
-2 -5 0 54 54 54
-1 -5 0 241 244 230
0 -5 0 241 244 230
1 -5 0 241 244 230
2 -5 0 241 244 230
3 -5 0 241 244 230
4 -5 0 241 244 230
-5 -4 0 241 244 230
4 -4 0 241 244 230
-5 -3 0 241 244 230
4 -3 0 241 244 230
-5 -2 0 241 244 230
4 -2 0 241 244 230
-5 -1 0 241 244 230
4 -1 0 241 244 230
-5 0 0 241 244 230
4 0 0 241 244 230
-5 1 0 241 244 230
4 1 0 241 244 230
-5 2 0 241 244 230
4 2 0 241 244 230
-5 3 0 241 244 230
4 3 0 241 244 230
-5 4 0 241 244 230
-4 4 0 241 244 230
-3 4 0 241 244 230
-2 4 0 241 244 230
-1 4 0 241 244 230
0 4 0 241 244 230
1 4 0 241 244 230
2 4 0 241 244 230
3 4 0 241 244 230
4 4 0 241 244 230
-3 -6 1 241 244 230
-1 -6 1 241 244 230
2 -6 1 241 244 230
3 -6 1 241 244 230
4 -6 1 241 244 230
5 -6 1 241 244 230
-5 -5 1 241 244 230
-4 -5 1 228 231 218
-3 -5 1 228 231 218
-2 -5 1 54 54 54
-1 -5 1 228 231 218
0 -5 1 228 231 218
1 -5 1 228 231 218
2 -5 1 228 231 218
3 -5 1 228 231 218
4 -5 1 241 244 230
5 -5 1 241 244 230
-6 -4 1 228 231 218
-5 -4 1 228 231 218
4 -4 1 228 231 218
5 -4 1 241 244 230
-6 -3 1 228 231 218
-5 -3 1 228 231 218
4 -3 1 228 231 218
5 -3 1 241 244 230
-6 -2 1 228 231 218
-5 -2 1 228 231 218
4 -2 1 228 231 218
5 -2 1 241 244 230
-5 -1 1 228 231 218
4 -1 1 228 231 218
5 -1 1 241 244 230
-5 0 1 228 231 218
4 0 1 228 231 218
-6 1 1 228 231 218
-5 1 1 228 231 218
4 1 1 228 231 218
-6 2 1 228 231 218
-5 2 1 228 231 218
4 2 1 228 231 218
-6 3 1 228 231 218
-5 3 1 228 231 218
4 3 1 228 231 218
-5 4 1 241 244 230
-4 4 1 228 231 218
-3 4 1 228 231 218
-2 4 1 228 231 218
-1 4 1 228 231 218
0 4 1 228 231 218
1 4 1 228 231 218
2 4 1 228 231 218
3 4 1 228 231 218
4 4 1 241 244 230
-3 5 1 241 244 230
-2 5 1 241 244 230
-1 5 1 241 244 230
0 5 1 241 244 230
1 5 1 241 244 230
2 5 1 241 244 230
-3 -6 2 241 244 230
-2 -6 2 241 244 230
-1 -6 2 241 244 230
1 -6 2 92 206 44
2 -6 2 241 244 230
-5 -5 2 241 244 230
-4 -5 2 228 231 218
-3 -5 2 228 231 218
-2 -5 2 228 231 218
-1 -5 2 228 231 218
0 -5 2 228 231 218
1 -5 2 228 231 218
2 -5 2 104 216 245
3 -5 2 104 216 245
4 -5 2 163 240 245
-6 -4 2 228 231 218
-5 -4 2 228 231 218
4 -4 2 104 216 245
-5 -3 2 104 216 245
4 -3 2 104 216 245
-6 -2 2 228 231 218
-5 -2 2 228 231 218
4 -2 2 163 240 245
-5 -1 2 228 231 218
4 -1 2 228 231 218
5 -1 2 241 244 230
-5 0 2 228 231 218
4 0 2 228 231 218
5 0 2 56 139 48
-6 1 2 228 231 218
-5 1 2 228 231 218
4 1 2 228 231 218
-5 2 2 104 216 245
4 2 2 228 231 218
-6 3 2 228 231 218
-5 3 2 228 231 218
4 3 2 228 231 218
-5 4 2 241 244 230
-4 4 2 228 231 218
-3 4 2 228 231 218
-2 4 2 104 216 245
-1 4 2 104 216 245
0 4 2 104 216 245
1 4 2 104 216 245
2 4 2 228 231 218
3 4 2 228 231 218
4 4 2 241 244 230
-3 5 2 241 244 230
2 5 2 241 244 230
0 -6 3 56 139 48
1 -6 3 92 206 44
2 -6 3 241 244 230
3 -6 3 241 244 230
4 -6 3 241 244 230
5 -6 3 241 244 230
-5 -5 3 241 244 230
-4 -5 3 228 231 218
-3 -5 3 228 231 218
-2 -5 3 228 231 218
-1 -5 3 228 231 218
0 -5 3 228 231 218
1 -5 3 228 231 218
2 -5 3 228 231 218
3 -5 3 228 231 218
4 -5 3 241 244 230
5 -5 3 241 244 230
-6 -4 3 228 231 218
-5 -4 3 228 231 218
4 -4 3 228 231 218
5 -4 3 241 244 230
-6 -3 3 228 231 218
-5 -3 3 228 231 218
4 -3 3 228 231 218
5 -3 3 241 244 230
-6 -2 3 228 231 218
-5 -2 3 228 231 218
4 -2 3 228 231 218
5 -2 3 241 244 230
-5 -1 3 228 231 218
4 -1 3 228 231 218
5 -1 3 241 244 230
-5 0 3 228 231 218
4 0 3 228 231 218
5 0 3 92 206 44
-6 1 3 228 231 218
-5 1 3 228 231 218
4 1 3 228 231 218
5 1 3 92 206 44
-6 2 3 228 231 218
-5 2 3 228 231 218
4 2 3 228 231 218
-6 3 3 228 231 218
-5 3 3 228 231 218
4 3 3 228 231 218
-5 4 3 241 244 230
-4 4 3 228 231 218
-3 4 3 228 231 218
-2 4 3 228 231 218
-1 4 3 228 231 218
0 4 3 228 231 218
1 4 3 228 231 218
2 4 3 228 231 218
3 4 3 228 231 218
4 4 3 241 244 230
-3 5 3 241 244 230
-2 5 3 241 244 230
-1 5 3 241 244 230
0 5 3 241 244 230
1 5 3 241 244 230
2 5 3 241 244 230
-5 -5 4 241 244 230
-4 -5 4 241 244 230
-3 -5 4 241 244 230
-2 -5 4 241 244 230
-1 -5 4 241 244 230
0 -5 4 241 244 230
1 -5 4 241 244 230
2 -5 4 241 244 230
3 -5 4 241 244 230
4 -5 4 241 244 230
-5 -4 4 241 244 230
4 -4 4 241 244 230
-5 -3 4 241 244 230
4 -3 4 241 244 230
-5 -2 4 241 244 230
4 -2 4 241 244 230
-5 -1 4 241 244 230
4 -1 4 241 244 230
-5 0 4 241 244 230
4 0 4 241 244 230
-5 1 4 241 244 230
4 1 4 241 244 230
-5 2 4 241 244 230
4 2 4 241 244 230
-5 3 4 241 244 230
4 3 4 241 244 230
-5 4 4 241 244 230
-4 4 4 241 244 230
-3 4 4 241 244 230
-2 4 4 241 244 230
-1 4 4 241 244 230
0 4 4 241 244 230
1 4 4 241 244 230
2 4 4 241 244 230
3 4 4 241 244 230
4 4 4 241 244 230
2 -6 5 241 244 230
3 -6 5 241 244 230
4 -6 5 241 244 230
5 -6 5 241 244 230
-5 -5 5 241 244 230
-4 -5 5 228 231 218
-3 -5 5 228 231 218
-2 -5 5 228 231 218
-1 -5 5 228 231 218
0 -5 5 228 231 218
1 -5 5 228 231 218
2 -5 5 228 231 218
3 -5 5 228 231 218
4 -5 5 241 244 230
5 -5 5 241 244 230
-6 -4 5 228 231 218
-5 -4 5 228 231 218
4 -4 5 228 231 218
5 -4 5 241 244 230
-6 -3 5 228 231 218
-5 -3 5 228 231 218
4 -3 5 228 231 218
5 -3 5 241 244 230
-6 -2 5 228 231 218
-5 -2 5 228 231 218
4 -2 5 228 231 218
5 -2 5 241 244 230
-5 -1 5 228 231 218
4 -1 5 228 231 218
5 -1 5 241 244 230
-5 0 5 228 231 218
4 0 5 228 231 218
-6 1 5 228 231 218
-5 1 5 228 231 218
4 1 5 228 231 218
-6 2 5 228 231 218
-5 2 5 228 231 218
4 2 5 228 231 218
-6 3 5 228 231 218
-5 3 5 228 231 218
4 3 5 228 231 218
-5 4 5 241 244 230
-4 4 5 228 231 218
-3 4 5 228 231 218
-2 4 5 228 231 218
-1 4 5 228 231 218
0 4 5 228 231 218
1 4 5 228 231 218
2 4 5 228 231 218
3 4 5 228 231 218
4 4 5 241 244 230
-3 5 5 241 244 230
-2 5 5 241 244 230
-1 5 5 241 244 230
0 5 5 241 244 230
1 5 5 241 244 230
2 5 5 241 244 230
1 -6 6 56 139 48
2 -6 6 241 244 230
-5 -5 6 241 244 230
-4 -5 6 228 231 218
-3 -5 6 228 231 218
-2 -5 6 228 231 218
-1 -5 6 228 231 218
0 -5 6 228 231 218
1 -5 6 228 231 218
2 -5 6 228 231 218
3 -5 6 104 216 245
4 -5 6 163 240 245
-6 -4 6 228 231 218
-5 -4 6 228 231 218
4 -4 6 104 216 245
-5 -3 6 104 216 245
4 -3 6 104 216 245
-6 -2 6 228 231 218
-5 -2 6 228 231 218
4 -2 6 104 216 245
-5 -1 6 228 231 218
4 -1 6 228 231 218
5 -1 6 241 244 230
-5 0 6 228 231 218
4 0 6 228 231 218
5 0 6 56 139 48
-6 1 6 228 231 218
-5 1 6 228 231 218
4 1 6 228 231 218
-5 2 6 104 216 245
4 2 6 228 231 218
-6 3 6 228 231 218
-5 3 6 228 231 218
4 3 6 228 231 218
-5 4 6 241 244 230
-4 4 6 228 231 218
-3 4 6 228 231 218
-2 4 6 104 216 245
-1 4 6 104 216 245
0 4 6 104 216 245
1 4 6 104 216 245
2 4 6 228 231 218
3 4 6 228 231 218
4 4 6 241 244 230
-3 5 6 241 244 230
2 5 6 241 244 230
0 -6 7 92 206 44
1 -6 7 92 206 44
2 -6 7 241 244 230
3 -6 7 241 244 230
4 -6 7 241 244 230
5 -6 7 241 244 230
-5 -5 7 241 244 230
-4 -5 7 228 231 218
-3 -5 7 228 231 218
-2 -5 7 228 231 218
-1 -5 7 228 231 218
0 -5 7 241 244 230
1 -5 7 241 244 230
2 -5 7 241 244 230
3 -5 7 241 244 230
4 -5 7 241 244 230
5 -5 7 241 244 230
-6 -4 7 228 231 218
-5 -4 7 228 231 218
-4 -4 7 99 156 96
-3 -4 7 99 156 96
-2 -4 7 99 156 96
-1 -4 7 99 156 96
0 -4 7 99 156 96
1 -4 7 99 156 96
2 -4 7 99 156 96
3 -4 7 99 156 96
4 -4 7 241 244 230
5 -4 7 241 244 230
-6 -3 7 228 231 218
-5 -3 7 228 231 218
-4 -3 7 99 156 96
-3 -3 7 99 156 96
-2 -3 7 99 156 96
-1 -3 7 99 156 96
0 -3 7 99 156 96
1 -3 7 99 156 96
2 -3 7 99 156 96
3 -3 7 99 156 96
4 -3 7 241 244 230
5 -3 7 241 244 230
-6 -2 7 228 231 218
-5 -2 7 228 231 218
-4 -2 7 99 156 96
-3 -2 7 99 156 96
-2 -2 7 99 156 96
-1 -2 7 99 156 96
0 -2 7 99 156 96
1 -2 7 99 156 96
2 -2 7 99 156 96
3 -2 7 99 156 96
4 -2 7 241 244 230
5 -2 7 241 244 230
-5 -1 7 228 231 218
-4 -1 7 99 156 96
-3 -1 7 99 156 96
-2 -1 7 99 156 96
-1 -1 7 99 156 96
0 -1 7 99 156 96
1 -1 7 99 156 96
2 -1 7 99 156 96
3 -1 7 99 156 96
4 -1 7 241 244 230
5 -1 7 241 244 230
-5 0 7 228 231 218
-4 0 7 99 156 96
-3 0 7 99 156 96
-2 0 7 99 156 96
-1 0 7 99 156 96
0 0 7 99 156 96
1 0 7 99 156 96
2 0 7 99 156 96
3 0 7 99 156 96
4 0 7 241 244 230
5 0 7 92 206 44
-6 1 7 228 231 218
-5 1 7 228 231 218
-4 1 7 99 156 96
-3 1 7 99 156 96
-2 1 7 99 156 96
-1 1 7 99 156 96
0 1 7 99 156 96
1 1 7 99 156 96
2 1 7 99 156 96
3 1 7 99 156 96
4 1 7 241 244 230
5 1 7 56 139 48
-6 2 7 228 231 218
-5 2 7 228 231 218
-4 2 7 99 156 96
-3 2 7 99 156 96
-2 2 7 99 156 96
-1 2 7 99 156 96
0 2 7 99 156 96
1 2 7 99 156 96
2 2 7 99 156 96
3 2 7 99 156 96
4 2 7 241 244 230
-6 3 7 228 231 218
-5 3 7 228 231 218
-4 3 7 99 156 96
-3 3 7 99 156 96
-2 3 7 99 156 96
-1 3 7 99 156 96
0 3 7 99 156 96
1 3 7 99 156 96
2 3 7 99 156 96
3 3 7 99 156 96
4 3 7 241 244 230
-5 4 7 241 244 230
-4 4 7 228 231 218
-3 4 7 228 231 218
-2 4 7 228 231 218
-1 4 7 228 231 218
0 4 7 228 231 218
1 4 7 228 231 218
2 4 7 228 231 218
3 4 7 228 231 218
4 4 7 241 244 230
-3 5 7 241 244 230
-2 5 7 241 244 230
-1 5 7 241 244 230
0 5 7 241 244 230
1 5 7 241 244 230
2 5 7 241 244 230
-5 -5 8 241 244 230
-4 -5 8 241 244 230
-3 -5 8 241 244 230
-2 -5 8 241 244 230
-1 -5 8 241 244 230
0 -5 8 241 244 230
1 -5 8 241 244 230
2 -5 8 241 244 230
3 -5 8 241 244 230
4 -5 8 241 244 230
-5 -4 8 241 244 230
-3 -4 8 41 116 71
-2 -4 8 56 139 48
-1 -4 8 41 116 71
4 -4 8 241 244 230
-5 -3 8 241 244 230
2 -3 8 80 58 33
4 -3 8 241 244 230
-5 -2 8 241 244 230
4 -2 8 241 244 230
-5 -1 8 241 244 230
4 -1 8 241 244 230
-5 0 8 241 244 230
4 0 8 241 244 230
-5 1 8 241 244 230
-3 1 8 80 58 33
4 1 8 241 244 230
-5 2 8 241 244 230
1 2 8 80 58 33
4 2 8 241 244 230
-5 3 8 241 244 230
4 3 8 241 244 230
-5 4 8 241 244 230
-4 4 8 241 244 230
-3 4 8 241 244 230
-2 4 8 241 244 230
-1 4 8 241 244 230
0 4 8 241 244 230
1 4 8 241 244 230
2 4 8 241 244 230
3 4 8 241 244 230
4 4 8 241 244 230
2 -3 9 151 112 58
-3 1 9 151 112 58
1 2 9 151 112 58
1 -4 10 41 116 71
2 -4 10 41 116 71
3 -4 10 92 206 44
1 -3 10 56 139 48
2 -3 10 41 116 71
3 -3 10 56 139 48
-4 -2 10 92 206 44
-3 -2 10 56 139 48
-2 -2 10 56 139 48
-1 -2 10 92 206 44
1 -2 10 41 116 71
2 -2 10 56 139 48
3 -2 10 41 116 71
-4 -1 10 41 116 71
-3 -1 10 56 139 48
-2 -1 10 56 139 48
-1 -1 10 92 206 44
-4 0 10 41 116 71
-3 0 10 151 112 58
-2 0 10 56 139 48
-1 0 10 56 139 48
-4 1 10 41 116 71
-3 1 10 56 139 48
-2 1 10 56 139 48
-1 1 10 56 139 48
0 1 10 56 139 48
1 1 10 56 139 48
2 1 10 56 139 48
-4 2 10 41 116 71
-3 2 10 56 139 48
-2 2 10 56 139 48
-1 2 10 41 116 71
0 2 10 56 139 48
2 2 10 56 139 48
0 3 10 56 139 48
1 3 10 92 206 44
2 3 10 56 139 48
2 -4 11 56 139 48
1 -3 11 92 206 44
2 -3 11 92 206 44
3 -3 11 56 139 48
-3 -2 11 56 139 48
-2 -2 11 56 139 48
2 -2 11 56 139 48
-4 -1 11 41 116 71
-3 -1 11 92 206 44
-2 -1 11 92 206 44
-4 0 11 56 139 48
-3 0 11 56 139 48
-2 0 11 92 206 44
-3 1 11 92 206 44
-2 1 11 56 139 48
0 1 11 56 139 48
1 1 11 92 206 44
2 1 11 92 206 44
0 2 11 41 116 71
1 2 11 56 139 48
2 2 11 92 206 44
