ply
format ascii 1.0
comment : MagicaVoxel @ Ephtracy
element vertex 275
property float x
property float y
property float z
property uchar red
property uchar green
property uchar blue
end_header
2 -6 0 228 231 218
4 -6 0 228 231 218
-4 -5 0 57 38 19
1 -4 0 241 244 230
2 -4 0 241 244 230
3 -4 0 241 244 230
4 -4 0 241 244 230
5 -4 0 241 244 230
1 -3 0 241 244 230
2 -3 0 241 244 230
3 -3 0 241 244 230
4 -3 0 241 244 230
5 -3 0 241 244 230
1 -2 0 241 244 230
2 -2 0 241 244 230
3 -2 0 241 244 230
4 -2 0 241 244 230
5 -2 0 241 244 230
-4 -1 0 80 58 33
2 0 0 228 231 218
4 0 0 228 231 218
-4 3 0 57 38 19
2 4 0 151 112 58
3 4 0 198 147 70
4 4 0 198 147 70
1 5 0 151 112 58
2 5 0 198 147 70
3 5 0 198 147 70
4 5 0 198 147 70
5 5 0 151 112 58
1 6 0 135 138 130
2 6 0 228 231 218
5 6 0 135 138 130
2 -7 1 86 86 86
3 -7 1 86 86 86
4 -7 1 86 86 86
2 -6 1 54 54 54
3 -6 1 54 54 54
4 -6 1 54 54 54
-4 -5 1 80 58 33
2 -5 1 86 86 86
3 -5 1 86 86 86
4 -5 1 86 86 86
1 -4 1 241 244 230
2 -4 1 54 54 54
3 -4 1 54 54 54
4 -4 1 54 54 54
5 -4 1 241 244 230
1 -3 1 197 200 189
2 -3 1 241 244 230
3 -3 1 241 244 230
4 -3 1 241 244 230
5 -3 1 197 200 189
-4 -2 1 56 139 48
1 -2 1 241 244 230
2 -2 1 54 54 54
3 -2 1 54 54 54
4 -2 1 54 54 54
5 -2 1 241 244 230
-5 -1 1 92 206 44
-4 -1 1 80 58 33
-3 -1 1 56 139 48
2 -1 1 86 86 86
3 -1 1 86 86 86
4 -1 1 86 86 86
-4 0 1 56 139 48
2 0 1 54 54 54
3 0 1 54 54 54
4 0 1 54 54 54
2 1 1 86 86 86
3 1 1 86 86 86
4 1 1 86 86 86
-4 3 1 57 38 19
2 5 1 198 147 70
3 5 1 151 112 58
4 5 1 198 147 70
5 5 1 198 147 70
6 5 1 198 147 70
1 6 1 197 200 189
3 6 1 228 231 218
5 6 1 197 200 189
3 -6 2 80 58 33
-4 -5 2 80 58 33
3 -5 2 151 112 58
1 -4 2 241 244 230
3 -4 2 80 58 33
5 -4 2 241 244 230
1 -3 2 197 200 189
2 -3 2 54 54 54
3 -3 2 54 54 54
4 -3 2 54 54 54
5 -3 2 197 200 189
1 -2 2 241 244 230
3 -2 2 151 112 58
5 -2 2 241 244 230
-4 -1 2 92 206 44
3 -1 2 151 112 58
3 0 2 198 147 70
-4 3 2 80 58 33
1 6 2 197 200 189
4 6 2 228 231 218
5 6 2 197 200 189
-4 -6 3 56 139 48
-5 -5 3 41 116 71
-4 -5 3 80 58 33
-3 -5 3 41 116 71
-4 -4 3 56 139 48
1 -4 3 241 244 230
5 -4 3 241 244 230
1 -3 3 197 200 189
2 -3 3 54 54 54
3 -3 3 54 54 54
4 -3 3 54 54 54
5 -3 3 197 200 189
1 -2 3 241 244 230
5 -2 3 241 244 230
-4 3 3 80 58 33
-5 -7 4 56 139 48
-4 -7 4 41 116 71
-3 -7 4 56 139 48
-6 -6 4 56 139 48
-5 -6 4 56 139 48
-4 -6 4 56 139 48
-3 -6 4 56 139 48
-2 -6 4 56 139 48
-6 -5 4 41 116 71
-5 -5 4 56 139 48
-4 -5 4 80 58 33
-3 -5 4 56 139 48
-2 -5 4 56 139 48
-6 -4 4 56 139 48
-5 -4 4 56 139 48
-4 -4 4 56 139 48
-3 -4 4 56 139 48
-2 -4 4 56 139 48
1 -4 4 241 244 230
5 -4 4 241 244 230
-5 -3 4 56 139 48
-4 -3 4 41 116 71
-3 -3 4 56 139 48
1 -3 4 197 200 189
2 -3 4 54 54 54
3 -3 4 54 54 54
4 -3 4 54 54 54
5 -3 4 197 200 189
1 -2 4 241 244 230
5 -2 4 241 244 230
-5 0 4 41 116 71
-4 0 4 56 139 48
-3 0 4 41 116 71
-6 1 4 56 139 48
-2 1 4 41 116 71
-7 2 4 56 139 48
-4 2 4 41 116 71
-1 2 4 41 116 71
-7 3 4 41 116 71
-5 3 4 41 116 71
-4 3 4 80 58 33
-3 3 4 41 116 71
-1 3 4 56 139 48
-7 4 4 41 116 71
-4 4 4 41 116 71
-1 4 4 41 116 71
-6 5 4 56 139 48
-2 5 4 56 139 48
-5 6 4 56 139 48
-4 6 4 41 116 71
-3 6 4 41 116 71
-4 -7 5 56 139 48
-5 -6 5 56 139 48
-4 -6 5 56 139 48
-3 -6 5 41 116 71
-6 -5 5 56 139 48
-5 -5 5 56 139 48
-4 -5 5 80 58 33
-3 -5 5 56 139 48
-2 -5 5 56 139 48
-5 -4 5 41 116 71
-4 -4 5 56 139 48
-3 -4 5 56 139 48
1 -4 5 241 244 230
2 -4 5 241 244 230
3 -4 5 241 244 230
4 -4 5 241 244 230
5 -4 5 241 244 230
-4 -3 5 56 139 48
1 -3 5 241 244 230
2 -3 5 228 231 218
3 -3 5 228 231 218
4 -3 5 228 231 218
5 -3 5 241 244 230
1 -2 5 241 244 230
2 -2 5 241 244 230
3 -2 5 241 244 230
4 -2 5 241 244 230
5 -2 5 241 244 230
-5 0 5 56 139 48
-4 0 5 92 206 44
-3 0 5 56 139 48
-5 1 5 41 116 71
-3 1 5 56 139 48
-7 2 5 41 116 71
-6 2 5 56 139 48
-2 2 5 41 116 71
-1 2 5 56 139 48
-7 3 5 41 116 71
-4 3 5 41 116 71
-1 3 5 41 116 71
-7 4 5 56 139 48
-6 4 5 56 139 48
-2 4 5 41 116 71
-1 4 5 56 139 48
-5 5 5 41 116 71
-3 5 5 41 116 71
-5 6 5 56 139 48
-4 6 5 41 116 71
-3 6 5 56 139 48
-4 -7 6 92 206 44
-5 -6 6 56 139 48
-4 -6 6 56 139 48
-3 -6 6 56 139 48
-6 -5 6 92 206 44
-5 -5 6 56 139 48
-4 -5 6 80 58 33
-3 -5 6 56 139 48
-2 -5 6 56 139 48
-5 -4 6 56 139 48
-4 -4 6 56 139 48
-3 -4 6 56 139 48
-4 -3 6 92 206 44
4 -3 6 241 244 230
-4 0 6 56 139 48
-5 1 6 92 206 44
-3 1 6 92 206 44
-6 2 6 92 206 44
-5 2 6 41 116 71
-3 2 6 41 116 71
-2 2 6 56 139 48
-7 3 6 56 139 48
-1 3 6 56 139 48
-6 4 6 56 139 48
-5 4 6 41 116 71
-3 4 6 41 116 71
-2 4 6 56 139 48
-5 5 6 92 206 44
-3 5 6 92 206 44
-4 6 6 56 139 48
-4 -6 7 56 139 48
-5 -5 7 56 139 48
-4 -5 7 80 58 33
-3 -5 7 92 206 44
-4 -4 7 56 139 48
4 -3 7 241 244 230
-4 1 7 41 116 71
-5 2 7 56 139 48
-3 2 7 56 139 48
-6 3 7 92 206 44
-2 3 7 41 116 71
-5 4 7 56 139 48
-3 4 7 56 139 48
-4 5 7 41 116 71
-4 -5 8 92 206 44
-4 1 8 92 206 44
-5 2 8 92 206 44
-3 2 8 56 139 48
-6 3 8 56 139 48
-2 3 8 92 206 44
-5 4 8 92 206 44
-3 4 8 56 139 48
-4 5 8 56 139 48
-4 2 9 56 139 48
-5 3 9 56 139 48
-4 3 9 92 206 44
-3 3 9 56 139 48
-4 4 9 92 206 44
