ply
format ascii 1.0
comment : MagicaVoxel @ Ephtracy
element vertex 285
property float x
property float y
property float z
property uchar red
property uchar green
property uchar blue
end_header
-4 -7 0 76 181 223
1 -7 0 57 38 19
4 -7 0 57 38 19
-6 -6 0 217 203 181
-3 -6 0 217 203 181
1 -6 0 198 147 70
2 -6 0 198 147 70
3 -6 0 151 112 58
4 -6 0 151 112 58
5 -6 0 151 112 58
6 -6 0 198 147 70
0 -5 0 151 112 58
1 -5 0 198 147 70
2 -5 0 198 147 70
3 -5 0 198 147 70
4 -5 0 198 147 70
5 -5 0 151 112 58
-6 -4 0 80 58 33
-5 -4 0 80 58 33
1 -4 0 57 38 19
4 -4 0 57 38 19
-1 -1 0 217 203 181
5 -1 0 217 203 181
-5 0 0 80 58 33
-4 0 0 80 58 33
3 0 0 217 203 181
-7 1 0 76 181 223
-2 1 0 206 96 200
-6 2 0 55 101 195
-4 3 0 76 181 223
4 3 0 57 38 19
5 3 0 76 181 223
-4 4 0 57 38 19
-1 4 0 217 203 181
-7 5 0 76 181 223
1 5 0 217 203 181
4 5 0 134 60 157
6 5 0 206 96 200
-5 6 0 206 96 200
-6 -7 1 76 181 223
-3 -7 1 206 96 200
-7 -6 1 76 181 223
-6 -6 1 206 96 200
-5 -6 1 55 101 195
-4 -6 1 206 96 200
-3 -6 1 217 203 181
-2 -6 1 206 96 200
-6 -5 1 55 101 195
-3 -5 1 206 96 200
1 -5 1 198 147 70
2 -5 1 151 112 58
3 -5 1 151 112 58
4 -5 1 151 112 58
5 -5 1 198 147 70
6 -5 1 198 147 70
-6 -4 1 80 58 33
1 -4 1 57 38 19
4 -4 1 80 58 33
-1 -2 1 76 181 223
5 -2 1 206 96 200
-2 -1 1 55 101 195
-1 -1 1 76 181 223
0 -1 1 55 101 195
4 -1 1 134 60 157
5 -1 1 206 96 200
6 -1 1 134 60 157
-5 0 1 80 58 33
-1 0 1 76 181 223
3 0 1 55 101 195
5 0 1 206 96 200
4 3 1 57 38 19
-4 4 1 80 58 33
-1 4 1 76 181 223
1 4 1 76 181 223
0 5 1 55 101 195
1 5 1 217 203 181
2 5 1 76 181 223
1 6 1 55 101 195
-6 -6 2 55 101 195
-3 -6 2 206 96 200
-6 -4 2 80 58 33
-4 -4 2 41 116 71
4 -4 2 255 225 0
-7 -3 2 56 139 48
-1 -1 2 76 181 223
5 -1 2 206 96 200
-6 0 2 41 116 71
-5 0 2 80 58 33
4 3 2 80 58 33
-4 4 2 80 58 33
1 5 2 76 181 223
-5 -4 3 80 58 33
-4 -4 3 56 139 48
-7 -3 3 76 181 223
-5 -1 3 134 60 157
-6 0 3 56 139 48
-5 0 3 80 58 33
-4 0 3 41 116 71
3 1 3 41 116 71
4 1 3 41 116 71
5 1 3 41 116 71
-5 2 3 41 116 71
-4 2 3 41 116 71
-3 2 3 41 116 71
2 2 3 41 116 71
6 2 3 41 116 71
-6 3 3 56 139 48
-2 3 3 41 116 71
2 3 3 41 116 71
4 3 3 80 58 33
6 3 3 41 116 71
-6 4 3 41 116 71
-4 4 3 80 58 33
-2 4 3 56 139 48
2 4 3 41 116 71
6 4 3 41 116 71
-6 5 3 41 116 71
-2 5 3 41 116 71
3 5 3 41 116 71
4 5 3 41 116 71
5 5 3 41 116 71
-5 6 3 41 116 71
-4 6 3 56 139 48
-3 6 3 41 116 71
-5 -5 4 56 139 48
-6 -4 4 56 139 48
-5 -4 4 80 58 33
-4 -4 4 206 96 200
-7 -3 4 236 245 246
-6 -3 4 56 139 48
-5 -3 4 80 58 33
-6 -2 4 56 139 48
-6 -1 4 92 206 44
-5 -1 4 80 58 33
-6 0 4 56 139 48
-5 0 4 80 58 33
-4 0 4 92 206 44
-5 1 4 92 206 44
3 1 4 56 139 48
4 1 4 41 116 71
5 1 4 56 139 48
-4 2 4 56 139 48
2 2 4 41 116 71
6 2 4 41 116 71
-7 3 4 56 139 48
-5 3 4 41 116 71
-3 3 4 41 116 71
2 3 4 41 116 71
4 3 4 80 58 33
6 3 4 56 139 48
-6 4 4 56 139 48
-5 4 4 56 139 48
-4 4 4 80 58 33
-2 4 4 92 206 44
2 4 4 41 116 71
6 4 4 41 116 71
-5 5 4 56 139 48
-3 5 4 41 116 71
3 5 4 41 116 71
4 5 4 56 139 48
5 5 4 41 116 71
-4 6 4 56 139 48
-2 -7 5 41 116 71
-5 -4 5 92 206 44
-6 -3 5 92 206 44
-5 -3 5 80 58 33
-6 -2 5 56 139 48
-5 -2 5 80 58 33
-5 -1 5 80 58 33
-5 0 5 92 206 44
4 1 5 92 206 44
3 2 5 41 116 71
5 2 5 41 116 71
-7 3 5 76 181 223
-6 3 5 80 58 33
-5 3 5 56 139 48
-4 3 5 56 139 48
2 3 5 56 139 48
3 3 5 56 139 48
4 3 5 80 58 33
6 3 5 56 139 48
-6 4 5 206 96 200
-5 4 5 56 139 48
-4 4 5 80 58 33
-3 4 5 56 139 48
3 4 5 41 116 71
5 4 5 41 116 71
-4 5 5 92 206 44
4 5 5 56 139 48
-2 -7 6 55 101 195
-1 -6 6 41 116 71
-5 -3 6 92 206 44
-6 -2 6 92 206 44
-5 -2 6 80 58 33
-6 2 6 80 58 33
4 2 6 56 139 48
-6 3 6 92 206 44
3 3 6 56 139 48
4 3 6 80 58 33
5 3 6 56 139 48
-6 4 6 246 236 244
-4 4 6 56 139 48
4 4 6 56 139 48
-2 -7 7 236 245 246
-3 -6 7 80 58 33
-2 -6 7 80 58 33
-1 -6 7 206 96 200
-4 -5 7 80 58 33
-7 -3 7 35 88 67
-6 -2 7 56 139 48
-5 -2 7 80 58 33
-5 1 7 80 58 33
4 3 7 92 206 44
-2 -6 8 92 206 44
-4 -5 8 80 58 33
-5 -4 8 35 88 67
-7 -3 8 35 88 67
-2 -3 8 35 88 67
-7 -2 8 35 88 67
-6 -2 8 56 139 48
-5 -2 8 80 58 33
-4 -2 8 80 58 33
-2 -1 8 41 116 71
-5 0 8 80 58 33
-4 1 8 35 88 67
-4 -5 9 80 58 33
-5 -4 9 41 116 71
-3 -4 9 35 88 67
-7 -3 9 41 116 71
-2 -3 9 35 88 67
-7 -2 9 41 116 71
-4 -2 9 80 58 33
-7 -1 9 35 88 67
-2 -1 9 35 88 67
-5 0 9 80 58 33
-4 1 9 35 88 67
-5 -4 10 35 88 67
-4 -4 10 80 58 33
-3 -4 10 35 88 67
-6 -3 10 41 116 71
-4 -3 10 80 58 33
-2 -3 10 41 116 71
-7 -2 10 41 116 71
-6 -2 10 41 116 71
-4 -2 10 80 58 33
-2 -2 10 41 116 71
-1 -2 10 41 116 71
-6 -1 10 41 116 71
-5 -1 10 80 58 33
-2 -1 10 41 116 71
-3 0 10 41 116 71
-4 1 10 41 116 71
-5 -4 11 41 116 71
-4 -4 11 41 116 71
-6 -3 11 35 88 67
-3 -3 11 35 88 67
-6 -2 11 41 116 71
-4 -2 11 80 58 33
-2 -2 11 41 116 71
-6 -1 11 35 88 67
-3 -1 11 255 225 0
-5 0 11 41 116 71
-3 0 11 35 88 67
-4 1 11 41 116 71
-4 -4 12 41 116 71
-5 -3 12 56 139 48
-4 -3 12 41 116 71
-3 -3 12 41 116 71
-6 -2 12 41 116 71
-5 -2 12 41 116 71
-4 -2 12 80 58 33
-3 -2 12 41 116 71
-2 -2 12 56 139 48
-5 -1 12 56 139 48
-4 -1 12 41 116 71
-3 -1 12 41 116 71
-4 0 12 41 116 71
-5 -3 13 41 116 71
-4 -3 13 56 139 48
-5 -2 13 41 116 71
-4 -2 13 41 116 71
-3 -2 13 41 116 71
-5 -1 13 41 116 71
-4 -1 13 56 139 48
-4 -2 14 41 116 71
