ply
format ascii 1.0
comment : MagicaVoxel @ Ephtracy
element vertex 275
property float x
property float y
property float z
property uchar red
property uchar green
property uchar blue
end_header
0 -7 0 80 58 33
5 -7 0 57 38 19
-5 -6 0 57 38 19
4 -6 0 151 112 58
5 -6 0 198 147 70
6 -6 0 198 147 70
7 -6 0 198 147 70
5 -5 0 151 112 58
6 -5 0 198 147 70
7 -5 0 198 147 70
5 -4 0 57 38 19
-2 -3 0 57 38 19
-6 -1 0 80 58 33
-2 0 0 57 38 19
5 0 0 80 58 33
6 1 0 151 112 58
-7 2 0 80 58 33
4 3 0 57 38 19
-2 4 0 80 58 33
0 -8 1 56 139 48
-1 -7 1 56 139 48
0 -7 1 80 58 33
1 -7 1 56 139 48
5 -7 1 80 58 33
-5 -6 1 57 38 19
0 -6 1 56 139 48
5 -6 1 151 112 58
6 -6 1 198 147 70
7 -6 1 198 147 70
6 -5 1 151 112 58
7 -5 1 198 147 70
5 -4 1 80 58 33
-2 -3 1 80 58 33
-6 -2 1 41 116 71
-7 -1 1 41 116 71
-6 -1 1 80 58 33
-5 -1 1 41 116 71
-6 0 1 41 116 71
-2 0 1 57 38 19
-7 2 1 56 139 48
4 3 1 80 58 33
-2 4 1 56 139 48
4 -8 2 136 65 46
5 -8 2 136 65 46
6 -8 2 136 65 46
7 -8 2 181 88 63
0 -7 2 56 139 48
5 -7 2 57 38 19
-5 -6 2 80 58 33
6 -6 2 198 147 70
7 -6 2 151 112 58
-2 -4 2 56 139 48
5 -4 2 80 58 33
-3 -3 2 56 139 48
-2 -3 2 80 58 33
-1 -3 2 92 206 44
-2 -2 2 56 139 48
-6 -1 2 41 116 71
-2 0 2 57 38 19
4 3 2 80 58 33
0 -7 3 92 206 44
4 -7 3 136 65 46
5 -7 3 136 65 46
6 -7 3 181 88 63
7 -7 3 136 65 46
-5 -6 3 80 58 33
4 -6 3 181 88 63
5 -6 3 181 88 63
6 -6 3 136 65 46
7 -6 3 136 65 46
-2 -4 3 92 206 44
5 -4 3 80 58 33
-3 -3 3 92 206 44
-2 -3 3 80 58 33
-1 -3 3 56 139 48
-2 -2 3 92 206 44
-2 0 3 57 38 19
3 1 3 56 139 48
4 1 3 41 116 71
5 1 3 56 139 48
2 2 3 56 139 48
6 2 3 56 139 48
2 3 3 56 139 48
4 3 3 80 58 33
6 3 3 41 116 71
2 4 3 41 116 71
6 4 3 56 139 48
3 5 3 41 116 71
4 5 3 56 139 48
5 5 3 41 116 71
-6 -8 4 56 139 48
-5 -8 4 41 116 71
-4 -8 4 56 139 48
-7 -7 4 56 139 48
-3 -7 4 56 139 48
-7 -6 4 56 139 48
-5 -6 4 80 58 33
-3 -6 4 41 116 71
-7 -5 4 41 116 71
-3 -5 4 56 139 48
4 -5 4 136 65 46
5 -5 4 181 88 63
6 -5 4 136 65 46
7 -5 4 136 65 46
-6 -4 4 41 116 71
-5 -4 4 56 139 48
-4 -4 4 41 116 71
4 -4 4 181 88 63
5 -4 4 136 65 46
6 -4 4 181 88 63
7 -4 4 136 65 46
-2 -3 4 92 206 44
4 -3 4 181 88 63
5 -3 4 181 88 63
6 -3 4 181 88 63
7 -3 4 181 88 63
-2 0 4 80 58 33
4 1 4 56 139 48
3 2 4 41 116 71
5 2 4 41 116 71
2 3 4 56 139 48
4 3 4 80 58 33
6 3 4 56 139 48
3 4 4 56 139 48
5 4 4 56 139 48
4 5 4 56 139 48
-5 -8 5 56 139 48
-6 -7 5 41 116 71
-4 -7 5 41 116 71
-7 -6 5 56 139 48
-5 -6 5 80 58 33
-3 -6 5 56 139 48
-6 -5 5 56 139 48
-4 -5 5 56 139 48
-5 -4 5 56 139 48
-2 0 5 57 38 19
4 1 5 92 206 44
3 2 5 56 139 48
5 2 5 56 139 48
2 3 5 92 206 44
4 3 5 80 58 33
6 3 5 56 139 48
3 4 5 56 139 48
5 4 5 56 139 48
4 5 5 92 206 44
-5 -8 6 92 206 44
-6 -7 6 56 139 48
-4 -7 6 56 139 48
-7 -6 6 92 206 44
-5 -6 6 80 58 33
-3 -6 6 56 139 48
-6 -5 6 56 139 48
-4 -5 6 56 139 48
-5 -4 6 92 206 44
-2 0 6 80 58 33
4 2 6 56 139 48
3 3 6 56 139 48
4 3 6 56 139 48
5 3 6 92 206 44
4 4 6 56 139 48
-5 -7 7 56 139 48
-6 -6 7 56 139 48
-5 -6 7 56 139 48
-4 -6 7 92 206 44
-5 -5 7 56 139 48
-2 0 7 80 58 33
4 3 7 92 206 44
-5 -6 8 92 206 44
-2 -5 8 33 69 54
-3 -4 8 33 69 54
-1 -4 8 33 69 54
-5 -3 8 33 69 54
1 -3 8 33 69 54
-6 -1 8 33 69 54
2 -1 8 33 69 54
-7 0 8 33 69 54
-2 0 8 80 58 33
3 0 8 33 69 54
-6 1 8 33 69 54
2 1 8 33 69 54
-5 3 8 33 69 54
1 3 8 33 69 54
-3 4 8 33 69 54
-1 4 8 33 69 54
-2 5 8 33 69 54
-2 -4 9 33 69 54
-3 -3 9 33 69 54
-1 -3 9 33 69 54
-4 -2 9 33 69 54
0 -2 9 33 69 54
-5 -1 9 35 88 67
1 -1 9 33 69 54
-6 0 9 33 69 54
-2 0 9 80 58 33
2 0 9 35 88 67
-5 1 9 33 69 54
1 1 9 33 69 54
-4 2 9 33 69 54
0 2 9 33 69 54
-3 3 9 35 88 67
-1 3 9 33 69 54
-2 4 9 33 69 54
-2 -3 10 33 69 54
-3 -2 10 33 69 54
-1 -2 10 33 69 54
-4 -1 10 33 69 54
0 -1 10 35 88 67
-5 0 10 33 69 54
-2 0 10 80 58 33
1 0 10 33 69 54
-4 1 10 35 88 67
0 1 10 35 88 67
-3 2 10 33 69 54
-1 2 10 33 69 54
-2 3 10 33 69 54
-2 -3 11 35 88 67
-3 -2 11 35 88 67
-1 -2 11 35 88 67
-4 -1 11 35 88 67
0 -1 11 35 88 67
-5 0 11 35 88 67
-2 0 11 80 58 33
1 0 11 35 88 67
-4 1 11 33 69 54
0 1 11 41 116 71
-3 2 11 35 88 67
-1 2 11 35 88 67
-2 3 11 33 69 54
-2 -3 12 41 116 71
-2 -2 12 35 88 67
-3 -1 12 33 69 54
-1 -1 12 33 69 54
-5 0 12 41 116 71
-4 0 12 33 69 54
-2 0 12 80 58 33
0 0 12 35 88 67
1 0 12 41 116 71
-3 1 12 35 88 67
-1 1 12 33 69 54
-2 2 12 33 69 54
-2 3 12 35 88 67
-2 -2 13 35 88 67
-3 -1 13 41 116 71
-1 -1 13 41 116 71
-4 0 13 35 88 67
-2 0 13 80 58 33
0 0 13 35 88 67
-3 1 13 35 88 67
-1 1 13 41 116 71
-2 2 13 35 88 67
-2 -2 14 41 116 71
-2 -1 14 35 88 67
-4 0 14 41 116 71
-3 0 14 33 69 54
-2 0 14 80 58 33
-1 0 14 33 69 54
0 0 14 41 116 71
-2 1 14 35 88 67
-2 2 14 41 116 71
-2 -1 15 35 88 67
-3 0 15 35 88 67
-1 0 15 35 88 67
-2 1 15 41 116 71
-2 -1 16 35 88 67
-3 0 16 41 116 71
-1 0 16 41 116 71
-2 1 16 35 88 67
-2 -1 17 41 116 71
-3 0 17 41 116 71
-2 0 17 41 116 71
-1 0 17 41 116 71
-2 1 17 41 116 71
-2 0 18 41 116 71
-2 0 19 41 116 71
-2 0 20 41 116 71
