ply
format ascii 1.0
comment : MagicaVoxel @ Ephtracy
element vertex 330
property float x
property float y
property float z
property uchar red
property uchar green
property uchar blue
end_header
-5 -8 0 57 38 19
-4 -8 0 57 38 19
-5 -7 0 80 58 33
-4 -7 0 80 58 33
-5 -6 0 80 58 33
4 -6 0 80 58 33
-4 -4 0 80 58 33
2 -4 0 57 38 19
6 -3 0 80 58 33
-2 -2 0 80 58 33
5 0 0 80 58 33
-6 1 0 80 58 33
-3 2 0 57 38 19
3 3 0 57 38 19
-1 4 0 80 58 33
6 4 0 80 58 33
-5 5 0 80 58 33
4 6 0 80 58 33
4 -7 1 56 139 48
3 -6 1 41 116 71
4 -6 1 56 139 48
5 -6 1 41 116 71
4 -5 1 41 116 71
-4 -4 1 80 58 33
2 -4 1 80 58 33
-2 -3 1 56 139 48
6 -3 1 92 206 44
-3 -2 1 56 139 48
-2 -2 1 80 58 33
-1 -2 1 92 206 44
-2 -1 1 56 139 48
5 0 1 56 139 48
-6 1 1 41 116 71
-3 2 1 57 38 19
-1 3 1 56 139 48
3 3 1 80 58 33
-2 4 1 56 139 48
-1 4 1 80 58 33
0 4 1 56 139 48
6 4 1 92 206 44
-5 5 1 80 58 33
-1 5 1 56 139 48
4 6 1 41 116 71
4 -6 2 56 139 48
-4 -4 2 80 58 33
2 -4 2 80 58 33
-2 -3 2 92 206 44
-3 -2 2 92 206 44
-2 -2 2 80 58 33
-1 -2 2 56 139 48
-2 -1 2 92 206 44
-3 2 2 80 58 33
3 3 2 80 58 33
-5 4 2 56 139 48
-1 4 2 92 206 44
-6 5 2 56 139 48
-5 5 2 80 58 33
-4 5 2 56 139 48
-5 6 2 92 206 44
-4 -7 3 41 116 71
-5 -6 3 41 116 71
-3 -6 3 41 116 71
-6 -5 3 41 116 71
-2 -5 3 56 139 48
-7 -4 3 56 139 48
-4 -4 3 80 58 33
-1 -4 3 41 116 71
2 -4 3 80 58 33
-6 -3 3 41 116 71
-2 -3 3 41 116 71
-5 -2 3 41 116 71
-3 -2 3 41 116 71
-2 -2 3 92 206 44
-4 -1 3 41 116 71
2 0 3 56 139 48
3 0 3 41 116 71
4 0 3 56 139 48
1 1 3 41 116 71
5 1 3 41 116 71
-3 2 3 57 38 19
0 2 3 56 139 48
6 2 3 41 116 71
0 3 3 41 116 71
3 3 3 80 58 33
6 3 3 56 139 48
0 4 3 41 116 71
6 4 3 41 116 71
-5 5 3 92 206 44
1 5 3 56 139 48
5 5 3 41 116 71
2 6 3 56 139 48
3 6 3 41 116 71
4 6 3 56 139 48
2 -7 4 41 116 71
3 -7 4 56 139 48
4 -7 4 41 116 71
-4 -6 4 56 139 48
1 -6 4 56 139 48
5 -6 4 41 116 71
-5 -5 4 41 116 71
-3 -5 4 41 116 71
0 -5 4 56 139 48
6 -5 4 41 116 71
-6 -4 4 41 116 71
-4 -4 4 80 58 33
-2 -4 4 41 116 71
0 -4 4 41 116 71
2 -4 4 80 58 33
6 -4 4 56 139 48
-5 -3 4 41 116 71
-3 -3 4 56 139 48
0 -3 4 41 116 71
6 -3 4 41 116 71
-4 -2 4 41 116 71
1 -2 4 56 139 48
5 -2 4 56 139 48
2 -1 4 56 139 48
3 -1 4 41 116 71
4 -1 4 41 116 71
3 0 4 56 139 48
2 1 4 56 139 48
4 1 4 41 116 71
-3 2 4 80 58 33
1 2 4 41 116 71
5 2 4 56 139 48
0 3 4 56 139 48
3 3 4 80 58 33
6 3 4 56 139 48
1 4 4 56 139 48
5 4 4 56 139 48
2 5 4 41 116 71
4 5 4 41 116 71
3 6 4 56 139 48
2 -7 5 56 139 48
3 -7 5 92 206 44
4 -7 5 56 139 48
-4 -6 5 41 116 71
2 -6 5 41 116 71
4 -6 5 56 139 48
-5 -5 5 41 116 71
-3 -5 5 41 116 71
0 -5 5 41 116 71
1 -5 5 56 139 48
5 -5 5 41 116 71
6 -5 5 56 139 48
-6 -4 5 41 116 71
-4 -4 5 80 58 33
-2 -4 5 56 139 48
0 -4 5 41 116 71
2 -4 5 80 58 33
6 -4 5 41 116 71
-5 -3 5 41 116 71
-3 -3 5 41 116 71
0 -3 5 56 139 48
1 -3 5 56 139 48
5 -3 5 41 116 71
6 -3 5 56 139 48
-4 -2 5 56 139 48
1 -2 5 41 116 71
4 -2 5 41 116 71
-4 -1 5 35 88 67
-2 -1 5 35 88 67
2 -1 5 56 139 48
3 -1 5 41 116 71
4 -1 5 56 139 48
-6 1 5 35 88 67
0 1 5 35 88 67
2 1 5 56 139 48
3 1 5 41 116 71
4 1 5 56 139 48
-7 2 5 35 88 67
-3 2 5 80 58 33
1 2 5 56 139 48
5 2 5 56 139 48
-6 3 5 35 88 67
0 3 5 35 88 67
1 3 5 41 116 71
3 3 5 80 58 33
5 3 5 41 116 71
1 4 5 41 116 71
5 4 5 41 116 71
-4 5 5 35 88 67
-2 5 5 35 88 67
2 5 5 56 139 48
3 5 5 41 116 71
4 5 5 92 206 44
-3 6 5 41 116 71
3 -7 6 56 139 48
2 -6 6 92 206 44
4 -6 6 92 206 44
-4 -5 6 56 139 48
1 -5 6 92 206 44
2 -5 6 41 116 71
4 -5 6 41 116 71
5 -5 6 56 139 48
-5 -4 6 41 116 71
-4 -4 6 80 58 33
-3 -4 6 41 116 71
0 -4 6 56 139 48
2 -4 6 80 58 33
6 -4 6 56 139 48
-4 -3 6 41 116 71
1 -3 6 56 139 48
4 -3 6 41 116 71
5 -3 6 56 139 48
2 -2 6 92 206 44
4 -2 6 92 206 44
-3 -1 6 35 88 67
3 -1 6 56 139 48
-4 0 6 35 88 67
-2 0 6 35 88 67
-5 1 6 35 88 67
-1 1 6 35 88 67
3 1 6 92 206 44
-6 2 6 35 88 67
-3 2 6 80 58 33
0 2 6 41 116 71
2 2 6 56 139 48
4 2 6 41 116 71
-5 3 6 35 88 67
-1 3 6 35 88 67
1 3 6 92 206 44
3 3 6 80 58 33
5 3 6 92 206 44
-4 4 6 35 88 67
-2 4 6 35 88 67
2 4 6 56 139 48
4 4 6 56 139 48
-3 5 6 35 88 67
3 5 6 56 139 48
3 -6 7 41 116 71
-4 -5 7 56 139 48
2 -5 7 56 139 48
4 -5 7 56 139 48
-5 -4 7 56 139 48
-4 -4 7 80 58 33
-3 -4 7 56 139 48
0 -4 7 41 116 71
1 -4 7 92 206 44
2 -4 7 80 58 33
5 -4 7 56 139 48
-4 -3 7 41 116 71
2 -3 7 56 139 48
4 -3 7 56 139 48
3 -2 7 41 116 71
-3 -1 7 35 88 67
-4 0 7 41 116 71
-2 0 7 41 116 71
-5 1 7 41 116 71
-1 1 7 41 116 71
-6 2 7 41 116 71
-3 2 7 80 58 33
0 2 7 35 88 67
3 2 7 56 139 48
-5 3 7 41 116 71
-1 3 7 41 116 71
2 3 7 56 139 48
3 3 7 57 38 19
4 3 7 56 139 48
-4 4 7 41 116 71
-2 4 7 35 88 67
3 4 7 41 116 71
-3 5 7 41 116 71
3 -6 8 92 206 44
2 -5 8 92 206 44
4 -5 8 56 139 48
-4 -4 8 41 116 71
1 -4 8 56 139 48
2 -4 8 80 58 33
5 -4 8 56 139 48
2 -3 8 92 206 44
4 -3 8 56 139 48
3 -2 8 56 139 48
-3 -1 8 56 139 48
-3 0 8 35 88 67
-4 1 8 35 88 67
-2 1 8 35 88 67
-6 2 8 56 139 48
-5 2 8 35 88 67
-3 2 8 80 58 33
-1 2 8 41 116 71
0 2 8 41 116 71
3 2 8 92 206 44
-4 3 8 41 116 71
-2 3 8 35 88 67
2 3 8 56 139 48
3 3 8 57 38 19
4 3 8 56 139 48
-3 4 8 35 88 67
3 4 8 56 139 48
-3 5 8 56 139 48
3 -5 9 56 139 48
-4 -4 9 56 139 48
2 -4 9 56 139 48
3 -4 9 92 206 44
4 -4 9 56 139 48
3 -3 9 92 206 44
-3 0 9 35 88 67
-4 1 9 41 116 71
-2 1 9 41 116 71
-5 2 9 35 88 67
-3 2 9 80 58 33
-1 2 9 35 88 67
-4 3 9 41 116 71
-2 3 9 41 116 71
3 3 9 56 139 48
-3 4 9 35 88 67
-3 0 10 41 116 71
-3 1 10 41 116 71
-5 2 10 41 116 71
-4 2 10 35 88 67
-3 2 10 80 58 33
-2 2 10 41 116 71
-1 2 10 56 139 48
-3 3 10 35 88 67
3 3 10 92 206 44
-3 4 10 41 116 71
-3 1 11 41 116 71
-4 2 11 41 116 71
-3 2 11 80 58 33
-2 2 11 35 88 67
-3 3 11 41 116 71
3 3 11 92 206 44
-3 1 12 56 139 48
-4 2 12 56 139 48
-3 2 12 80 58 33
-2 2 12 41 116 71
-3 3 12 41 116 71
-3 2 13 41 116 71
-3 2 14 56 139 48
