ply
format ascii 1.0
comment : MagicaVoxel @ Ephtracy
element vertex 270
property float x
property float y
property float z
property uchar red
property uchar green
property uchar blue
end_header
-6 -7 0 57 38 19
-2 -7 0 80 58 33
4 -7 0 80 58 33
-8 -6 0 198 147 70
-7 -6 0 198 147 70
-6 -6 0 151 112 58
-8 -5 0 198 147 70
-7 -5 0 151 112 58
-6 -5 0 151 112 58
-6 -4 0 57 38 19
2 -4 0 57 38 19
-1 -3 0 80 58 33
-7 -1 0 135 138 130
5 -1 0 80 58 33
-7 0 0 57 38 19
-6 0 0 151 112 58
3 2 0 57 38 19
-2 4 0 80 58 33
-2 -8 1 56 139 48
-6 -7 1 80 58 33
-3 -7 1 56 139 48
-2 -7 1 80 58 33
-1 -7 1 92 206 44
4 -7 1 56 139 48
-8 -6 1 198 147 70
-7 -6 1 198 147 70
-6 -6 1 151 112 58
-5 -6 1 198 147 70
-2 -6 1 56 139 48
-8 -5 1 151 112 58
-7 -5 1 198 147 70
-6 -5 1 198 147 70
-5 -5 1 198 147 70
-6 -4 1 80 58 33
-1 -4 1 56 139 48
2 -4 1 57 38 19
-2 -3 1 56 139 48
-1 -3 1 80 58 33
0 -3 1 92 206 44
-1 -2 1 56 139 48
5 -1 1 56 139 48
-7 0 1 57 38 19
-4 2 1 80 58 33
3 2 1 80 58 33
-2 4 1 56 139 48
-8 -8 2 181 88 63
-7 -8 2 136 65 46
-6 -8 2 136 65 46
-5 -8 2 136 65 46
-6 -7 2 57 38 19
-2 -7 2 92 206 44
-8 -6 2 151 112 58
-7 -6 2 151 112 58
-6 -6 2 198 147 70
-6 -4 2 80 58 33
-1 -4 2 92 206 44
2 -4 2 80 58 33
-2 -3 2 92 206 44
-1 -3 2 80 58 33
0 -3 2 56 139 48
-1 -2 2 92 206 44
-4 2 2 80 58 33
3 2 2 80 58 33
-8 -7 3 136 65 46
-7 -7 3 136 65 46
-6 -7 3 181 88 63
-5 -7 3 136 65 46
-8 -6 3 136 65 46
-7 -6 3 136 65 46
-6 -6 3 136 65 46
-5 -6 3 181 88 63
-8 -4 3 255 225 0
-6 -4 3 80 58 33
2 -4 3 57 38 19
-1 -3 3 92 206 44
-4 -1 3 41 116 71
2 -1 3 56 139 48
3 -1 3 41 116 71
4 -1 3 56 139 48
-5 0 3 41 116 71
-3 0 3 56 139 48
1 0 3 41 116 71
5 0 3 41 116 71
-6 1 3 41 116 71
-2 1 3 41 116 71
0 1 3 56 139 48
6 1 3 41 116 71
-7 2 3 56 139 48
-4 2 3 80 58 33
-1 2 3 41 116 71
0 2 3 41 116 71
3 2 3 80 58 33
6 2 3 56 139 48
-6 3 3 41 116 71
-2 3 3 56 139 48
0 3 3 41 116 71
6 3 3 41 116 71
-5 4 3 56 139 48
-3 4 3 41 116 71
1 4 3 56 139 48
5 4 3 41 116 71
-4 5 3 56 139 48
2 5 3 56 139 48
3 5 3 41 116 71
4 5 3 56 139 48
-8 -5 4 136 65 46
-7 -5 4 181 88 63
-6 -5 4 136 65 46
-5 -5 4 136 65 46
-8 -4 4 136 65 46
-7 -4 4 136 65 46
-6 -4 4 181 88 63
-5 -4 4 181 88 63
2 -4 4 80 58 33
-8 -3 4 181 88 63
-7 -3 4 181 88 63
-6 -3 4 181 88 63
-5 -3 4 181 88 63
3 -1 4 56 139 48
-4 0 4 56 139 48
2 0 4 56 139 48
4 0 4 41 116 71
-5 1 4 56 139 48
-3 1 4 92 206 44
1 1 4 41 116 71
5 1 4 56 139 48
-6 2 4 56 139 48
-4 2 4 80 58 33
-2 2 4 56 139 48
0 2 4 56 139 48
3 2 4 80 58 33
6 2 4 56 139 48
-5 3 4 56 139 48
-3 3 4 56 139 48
1 3 4 56 139 48
5 3 4 56 139 48
-4 4 4 92 206 44
2 4 4 41 116 71
4 4 4 41 116 71
3 5 4 56 139 48
2 -4 5 80 58 33
2 0 5 41 116 71
3 0 5 41 116 71
4 0 5 56 139 48
-4 1 5 41 116 71
1 1 5 56 139 48
5 1 5 56 139 48
-5 2 5 56 139 48
-4 2 5 80 58 33
-3 2 5 56 139 48
0 2 5 35 88 67
1 2 5 41 116 71
3 2 5 80 58 33
5 2 5 41 116 71
-4 3 5 41 116 71
1 3 5 41 116 71
5 3 5 41 116 71
2 4 5 56 139 48
3 4 5 41 116 71
4 4 5 92 206 44
2 -8 6 35 88 67
1 -7 6 35 88 67
3 -7 6 35 88 67
-1 -5 6 35 88 67
5 -5 6 35 88 67
-2 -4 6 35 88 67
2 -4 6 80 58 33
6 -4 6 35 88 67
-1 -3 6 35 88 67
5 -3 6 35 88 67
1 -1 6 35 88 67
3 -1 6 35 88 67
3 0 6 92 206 44
-4 1 6 56 139 48
2 1 6 56 139 48
4 1 6 41 116 71
-5 2 6 92 206 44
-4 2 6 80 58 33
-3 2 6 56 139 48
1 2 6 92 206 44
3 2 6 80 58 33
5 2 6 92 206 44
-4 3 6 56 139 48
2 3 6 56 139 48
4 3 6 56 139 48
3 4 6 56 139 48
2 -7 7 35 88 67
1 -6 7 35 88 67
3 -6 7 35 88 67
0 -5 7 35 88 67
4 -5 7 35 88 67
-1 -4 7 35 88 67
2 -4 7 80 58 33
5 -4 7 41 116 71
0 -3 7 35 88 67
4 -3 7 35 88 67
1 -2 7 35 88 67
3 -2 7 35 88 67
2 -1 7 35 88 67
3 1 7 56 139 48
-4 2 7 56 139 48
2 2 7 56 139 48
3 2 7 57 38 19
4 2 7 56 139 48
3 3 7 41 116 71
2 -7 8 35 88 67
1 -6 8 41 116 71
3 -6 8 41 116 71
0 -5 8 41 116 71
4 -5 8 41 116 71
-1 -4 8 41 116 71
2 -4 8 80 58 33
5 -4 8 35 88 67
0 -3 8 41 116 71
4 -3 8 41 116 71
1 -2 8 41 116 71
3 -2 8 35 88 67
2 -1 8 41 116 71
3 1 8 92 206 44
-4 2 8 56 139 48
2 2 8 56 139 48
3 2 8 57 38 19
4 2 8 56 139 48
3 3 8 56 139 48
2 -7 9 56 139 48
2 -6 9 35 88 67
1 -5 9 35 88 67
3 -5 9 35 88 67
-1 -4 9 56 139 48
0 -4 9 35 88 67
2 -4 9 80 58 33
4 -4 9 41 116 71
5 -4 9 41 116 71
1 -3 9 41 116 71
3 -3 9 35 88 67
2 -2 9 35 88 67
2 -1 9 56 139 48
-4 2 9 92 206 44
3 2 9 56 139 48
2 -6 10 35 88 67
1 -5 10 41 116 71
3 -5 10 41 116 71
0 -4 10 35 88 67
2 -4 10 80 58 33
4 -4 10 35 88 67
1 -3 10 41 116 71
3 -3 10 41 116 71
2 -2 10 35 88 67
3 2 10 92 206 44
2 -6 11 41 116 71
2 -5 11 41 116 71
0 -4 11 41 116 71
1 -4 11 35 88 67
2 -4 11 80 58 33
3 -4 11 41 116 71
4 -4 11 56 139 48
2 -3 11 35 88 67
2 -2 11 41 116 71
3 2 11 92 206 44
2 -5 12 41 116 71
1 -4 12 41 116 71
2 -4 12 80 58 33
3 -4 12 35 88 67
2 -3 12 41 116 71
2 -5 13 56 139 48
1 -4 13 56 139 48
3 -4 13 41 116 71
2 -3 13 41 116 71
2 -4 14 41 116 71
2 -4 15 56 139 48
