ply
format ascii 1.0
comment : MagicaVoxel @ Ephtracy
element vertex 270
property float x
property float y
property float z
property uchar red
property uchar green
property uchar blue
end_header
2 -7 0 57 38 19
6 -7 0 80 58 33
12 -7 0 80 58 33
0 -6 0 198 147 70
1 -6 0 198 147 70
2 -6 0 151 112 58
0 -5 0 198 147 70
1 -5 0 151 112 58
2 -5 0 151 112 58
2 -4 0 57 38 19
10 -4 0 57 38 19
7 -3 0 80 58 33
1 -1 0 135 138 130
13 -1 0 80 58 33
1 0 0 57 38 19
2 0 0 151 112 58
11 2 0 57 38 19
6 4 0 80 58 33
6 -8 1 56 139 48
2 -7 1 80 58 33
5 -7 1 56 139 48
6 -7 1 80 58 33
7 -7 1 92 206 44
12 -7 1 56 139 48
0 -6 1 198 147 70
1 -6 1 198 147 70
2 -6 1 151 112 58
3 -6 1 198 147 70
6 -6 1 56 139 48
0 -5 1 198 147 70
1 -5 1 198 147 70
2 -5 1 198 147 70
3 -5 1 198 147 70
2 -4 1 80 58 33
7 -4 1 56 139 48
10 -4 1 57 38 19
6 -3 1 56 139 48
7 -3 1 80 58 33
8 -3 1 92 206 44
7 -2 1 56 139 48
13 -1 1 56 139 48
1 0 1 57 38 19
4 2 1 80 58 33
11 2 1 80 58 33
6 4 1 56 139 48
0 -8 2 181 88 63
1 -8 2 136 65 46
2 -8 2 136 65 46
3 -8 2 136 65 46
2 -7 2 57 38 19
6 -7 2 92 206 44
0 -6 2 151 112 58
1 -6 2 151 112 58
2 -6 2 198 147 70
2 -4 2 80 58 33
7 -4 2 92 206 44
10 -4 2 80 58 33
6 -3 2 92 206 44
7 -3 2 80 58 33
8 -3 2 56 139 48
7 -2 2 92 206 44
4 2 2 80 58 33
11 2 2 80 58 33
0 -7 3 136 65 46
1 -7 3 136 65 46
2 -7 3 181 88 63
3 -7 3 136 65 46
0 -6 3 136 65 46
1 -6 3 136 65 46
2 -6 3 136 65 46
3 -6 3 181 88 63
1 -4 3 255 225 0
2 -4 3 80 58 33
10 -4 3 57 38 19
7 -3 3 92 206 44
4 -1 3 41 116 71
10 -1 3 56 139 48
11 -1 3 41 116 71
12 -1 3 56 139 48
3 0 3 41 116 71
5 0 3 56 139 48
9 0 3 41 116 71
13 0 3 41 116 71
2 1 3 41 116 71
6 1 3 41 116 71
8 1 3 56 139 48
14 1 3 41 116 71
1 2 3 56 139 48
4 2 3 80 58 33
7 2 3 41 116 71
8 2 3 41 116 71
11 2 3 80 58 33
14 2 3 56 139 48
2 3 3 41 116 71
6 3 3 56 139 48
8 3 3 41 116 71
14 3 3 41 116 71
3 4 3 56 139 48
5 4 3 41 116 71
9 4 3 56 139 48
13 4 3 41 116 71
4 5 3 56 139 48
10 5 3 56 139 48
11 5 3 41 116 71
12 5 3 56 139 48
0 -5 4 136 65 46
1 -5 4 181 88 63
2 -5 4 136 65 46
3 -5 4 136 65 46
0 -4 4 136 65 46
1 -4 4 136 65 46
2 -4 4 181 88 63
3 -4 4 181 88 63
10 -4 4 80 58 33
0 -3 4 181 88 63
1 -3 4 181 88 63
2 -3 4 181 88 63
3 -3 4 181 88 63
11 -1 4 56 139 48
4 0 4 56 139 48
10 0 4 56 139 48
12 0 4 41 116 71
3 1 4 56 139 48
5 1 4 92 206 44
9 1 4 41 116 71
13 1 4 56 139 48
2 2 4 56 139 48
4 2 4 80 58 33
6 2 4 56 139 48
8 2 4 56 139 48
11 2 4 80 58 33
14 2 4 56 139 48
3 3 4 56 139 48
5 3 4 56 139 48
9 3 4 56 139 48
13 3 4 56 139 48
4 4 4 92 206 44
10 4 4 41 116 71
12 4 4 41 116 71
11 5 4 56 139 48
10 -4 5 80 58 33
10 0 5 41 116 71
11 0 5 41 116 71
12 0 5 56 139 48
4 1 5 41 116 71
9 1 5 56 139 48
13 1 5 56 139 48
3 2 5 56 139 48
4 2 5 80 58 33
5 2 5 56 139 48
8 2 5 35 88 67
9 2 5 41 116 71
11 2 5 80 58 33
13 2 5 41 116 71
4 3 5 41 116 71
9 3 5 41 116 71
13 3 5 41 116 71
10 4 5 56 139 48
11 4 5 41 116 71
12 4 5 92 206 44
10 -8 6 35 88 67
9 -7 6 35 88 67
11 -7 6 35 88 67
7 -5 6 35 88 67
13 -5 6 35 88 67
6 -4 6 35 88 67
10 -4 6 80 58 33
14 -4 6 35 88 67
7 -3 6 35 88 67
13 -3 6 35 88 67
9 -1 6 35 88 67
11 -1 6 35 88 67
11 0 6 92 206 44
4 1 6 56 139 48
10 1 6 56 139 48
12 1 6 41 116 71
3 2 6 92 206 44
4 2 6 80 58 33
5 2 6 56 139 48
9 2 6 92 206 44
11 2 6 80 58 33
13 2 6 92 206 44
4 3 6 56 139 48
10 3 6 56 139 48
12 3 6 56 139 48
11 4 6 56 139 48
10 -7 7 35 88 67
9 -6 7 35 88 67
11 -6 7 35 88 67
8 -5 7 35 88 67
12 -5 7 35 88 67
7 -4 7 35 88 67
10 -4 7 80 58 33
13 -4 7 41 116 71
8 -3 7 35 88 67
12 -3 7 35 88 67
9 -2 7 35 88 67
11 -2 7 35 88 67
10 -1 7 35 88 67
11 1 7 56 139 48
4 2 7 56 139 48
10 2 7 56 139 48
11 2 7 57 38 19
12 2 7 56 139 48
11 3 7 41 116 71
10 -7 8 35 88 67
9 -6 8 41 116 71
11 -6 8 41 116 71
8 -5 8 41 116 71
12 -5 8 41 116 71
7 -4 8 41 116 71
10 -4 8 80 58 33
13 -4 8 35 88 67
8 -3 8 41 116 71
12 -3 8 41 116 71
9 -2 8 41 116 71
11 -2 8 35 88 67
10 -1 8 41 116 71
11 1 8 92 206 44
4 2 8 56 139 48
10 2 8 56 139 48
11 2 8 57 38 19
12 2 8 56 139 48
11 3 8 56 139 48
10 -7 9 56 139 48
10 -6 9 35 88 67
9 -5 9 35 88 67
11 -5 9 35 88 67
7 -4 9 56 139 48
8 -4 9 35 88 67
10 -4 9 80 58 33
12 -4 9 41 116 71
13 -4 9 41 116 71
9 -3 9 41 116 71
11 -3 9 35 88 67
10 -2 9 35 88 67
10 -1 9 56 139 48
4 2 9 92 206 44
11 2 9 56 139 48
10 -6 10 35 88 67
9 -5 10 41 116 71
11 -5 10 41 116 71
8 -4 10 35 88 67
10 -4 10 80 58 33
12 -4 10 35 88 67
9 -3 10 41 116 71
11 -3 10 41 116 71
10 -2 10 35 88 67
11 2 10 92 206 44
10 -6 11 41 116 71
10 -5 11 41 116 71
8 -4 11 41 116 71
9 -4 11 35 88 67
10 -4 11 80 58 33
11 -4 11 41 116 71
12 -4 11 56 139 48
10 -3 11 35 88 67
10 -2 11 41 116 71
11 2 11 92 206 44
10 -5 12 41 116 71
9 -4 12 41 116 71
10 -4 12 80 58 33
11 -4 12 35 88 67
10 -3 12 41 116 71
10 -5 13 56 139 48
9 -4 13 56 139 48
11 -4 13 41 116 71
10 -3 13 41 116 71
10 -4 14 41 116 71
10 -4 15 56 139 48
