ply
format ascii 1.0
comment : MagicaVoxel @ Ephtracy
element vertex 263
property float x
property float y
property float z
property uchar red
property uchar green
property uchar blue
end_header
0 -6 0 80 58 33
5 -6 0 57 38 19
-5 -5 0 57 38 19
4 -5 0 151 112 58
5 -5 0 198 147 70
6 -5 0 198 147 70
7 -5 0 198 147 70
5 -4 0 151 112 58
6 -4 0 198 147 70
7 -4 0 198 147 70
5 -3 0 57 38 19
-2 -2 0 57 38 19
-6 0 0 80 58 33
-2 1 0 57 38 19
5 1 0 80 58 33
6 2 0 151 112 58
-7 3 0 80 58 33
4 4 0 57 38 19
-2 5 0 80 58 33
0 -7 1 56 139 48
-1 -6 1 56 139 48
0 -6 1 80 58 33
1 -6 1 56 139 48
5 -6 1 80 58 33
-5 -5 1 57 38 19
0 -5 1 56 139 48
5 -5 1 151 112 58
6 -5 1 198 147 70
7 -5 1 198 147 70
6 -4 1 151 112 58
7 -4 1 198 147 70
5 -3 1 80 58 33
-2 -2 1 80 58 33
-6 -1 1 41 116 71
-7 0 1 41 116 71
-6 0 1 80 58 33
-5 0 1 41 116 71
-6 1 1 41 116 71
-2 1 1 57 38 19
-7 3 1 56 139 48
4 4 1 80 58 33
-2 5 1 56 139 48
4 -7 2 136 65 46
5 -7 2 136 65 46
6 -7 2 136 65 46
7 -7 2 181 88 63
0 -6 2 56 139 48
5 -6 2 57 38 19
-5 -5 2 80 58 33
6 -5 2 198 147 70
7 -5 2 151 112 58
-2 -3 2 56 139 48
5 -3 2 80 58 33
-3 -2 2 56 139 48
-2 -2 2 80 58 33
-1 -2 2 92 206 44
-2 -1 2 56 139 48
-6 0 2 41 116 71
-2 1 2 57 38 19
4 4 2 80 58 33
0 -6 3 92 206 44
4 -6 3 136 65 46
5 -6 3 136 65 46
6 -6 3 181 88 63
7 -6 3 136 65 46
-5 -5 3 80 58 33
4 -5 3 181 88 63
5 -5 3 181 88 63
6 -5 3 136 65 46
7 -5 3 136 65 46
-2 -3 3 92 206 44
5 -3 3 80 58 33
-3 -2 3 92 206 44
-2 -2 3 80 58 33
-1 -2 3 56 139 48
-2 -1 3 92 206 44
-2 1 3 57 38 19
3 2 3 56 139 48
4 2 3 41 116 71
5 2 3 56 139 48
2 3 3 56 139 48
6 3 3 56 139 48
2 4 3 56 139 48
4 4 3 80 58 33
6 4 3 41 116 71
2 5 3 41 116 71
6 5 3 56 139 48
3 6 3 41 116 71
4 6 3 56 139 48
5 6 3 41 116 71
-6 -7 4 56 139 48
-5 -7 4 41 116 71
-4 -7 4 56 139 48
-7 -6 4 56 139 48
-3 -6 4 56 139 48
-7 -5 4 56 139 48
-5 -5 4 80 58 33
-3 -5 4 41 116 71
-7 -4 4 41 116 71
-3 -4 4 56 139 48
4 -4 4 136 65 46
5 -4 4 181 88 63
6 -4 4 136 65 46
7 -4 4 136 65 46
-6 -3 4 41 116 71
-5 -3 4 56 139 48
-4 -3 4 41 116 71
4 -3 4 181 88 63
5 -3 4 136 65 46
6 -3 4 181 88 63
7 -3 4 136 65 46
-2 -2 4 92 206 44
4 -2 4 181 88 63
5 -2 4 181 88 63
6 -2 4 181 88 63
7 -2 4 181 88 63
-2 1 4 80 58 33
4 2 4 56 139 48
3 3 4 41 116 71
5 3 4 41 116 71
2 4 4 56 139 48
4 4 4 80 58 33
6 4 4 56 139 48
3 5 4 56 139 48
5 5 4 56 139 48
4 6 4 56 139 48
-5 -7 5 56 139 48
-6 -6 5 41 116 71
-4 -6 5 41 116 71
-7 -5 5 56 139 48
-5 -5 5 80 58 33
-3 -5 5 56 139 48
-6 -4 5 56 139 48
-4 -4 5 56 139 48
-5 -3 5 56 139 48
-2 1 5 57 38 19
4 2 5 92 206 44
3 3 5 56 139 48
5 3 5 56 139 48
2 4 5 92 206 44
4 4 5 80 58 33
6 4 5 56 139 48
3 5 5 56 139 48
5 5 5 56 139 48
4 6 5 92 206 44
-5 -7 6 92 206 44
-6 -6 6 56 139 48
-4 -6 6 56 139 48
-7 -5 6 92 206 44
-5 -5 6 80 58 33
-3 -5 6 56 139 48
-6 -4 6 56 139 48
-4 -4 6 56 139 48
-5 -3 6 92 206 44
-2 1 6 80 58 33
4 3 6 56 139 48
3 4 6 56 139 48
4 4 6 56 139 48
5 4 6 92 206 44
4 5 6 56 139 48
-5 -6 7 56 139 48
-6 -5 7 56 139 48
-5 -5 7 56 139 48
-4 -5 7 92 206 44
-5 -4 7 56 139 48
-2 1 7 80 58 33
4 4 7 92 206 44
-5 -5 8 92 206 44
-2 -4 8 75 75 75
-3 -3 8 75 75 75
-1 -3 8 75 75 75
-5 -2 8 75 75 75
1 -2 8 75 75 75
-6 0 8 75 75 75
2 0 8 75 75 75
-7 1 8 75 75 75
-2 1 8 80 58 33
3 1 8 75 75 75
-6 2 8 75 75 75
2 2 8 75 75 75
-5 4 8 75 75 75
1 4 8 75 75 75
-3 5 8 75 75 75
-1 5 8 75 75 75
-2 6 8 75 75 75
-2 -3 9 75 75 75
-3 -2 9 75 75 75
-1 -2 9 75 75 75
-4 -1 9 75 75 75
0 -1 9 75 75 75
-5 0 9 35 88 67
1 0 9 75 75 75
-6 1 9 75 75 75
-2 1 9 80 58 33
2 1 9 35 88 67
-5 2 9 75 75 75
1 2 9 75 75 75
-4 3 9 75 75 75
0 3 9 75 75 75
-3 4 9 35 88 67
-1 4 9 75 75 75
-2 5 9 75 75 75
-2 -2 10 75 75 75
-3 -1 10 75 75 75
-1 -1 10 75 75 75
-4 0 10 75 75 75
0 0 10 35 88 67
-5 1 10 75 75 75
-2 1 10 80 58 33
1 1 10 75 75 75
-4 2 10 35 88 67
0 2 10 35 88 67
-3 3 10 75 75 75
-1 3 10 75 75 75
-2 4 10 75 75 75
-2 -2 11 35 88 67
-3 -1 11 35 88 67
-1 -1 11 35 88 67
-4 0 11 35 88 67
0 0 11 35 88 67
-5 1 11 35 88 67
-2 1 11 80 58 33
1 1 11 35 88 67
-4 2 11 75 75 75
0 2 11 41 116 71
-3 3 11 35 88 67
-1 3 11 35 88 67
-2 4 11 75 75 75
-2 -2 12 41 116 71
-2 -1 12 35 88 67
-3 0 12 75 75 75
-1 0 12 75 75 75
-5 1 12 41 116 71
-4 1 12 75 75 75
-2 1 12 80 58 33
0 1 12 35 88 67
1 1 12 41 116 71
-3 2 12 35 88 67
-1 2 12 75 75 75
-2 3 12 75 75 75
-2 4 12 35 88 67
-2 -1 13 35 88 67
-3 0 13 41 116 71
-1 0 13 41 116 71
-4 1 13 35 88 67
-2 1 13 80 58 33
0 1 13 35 88 67
-3 2 13 35 88 67
-1 2 13 41 116 71
-2 3 13 35 88 67
-2 -1 14 41 116 71
-2 0 14 35 88 67
-4 1 14 41 116 71
-3 1 14 75 75 75
-2 1 14 80 58 33
-1 1 14 75 75 75
0 1 14 41 116 71
-2 2 14 35 88 67
-2 3 14 41 116 71
-2 0 15 35 88 67
-3 1 15 35 88 67
-1 1 15 35 88 67
-2 2 15 41 116 71
