ply
format ascii 1.0
comment : MagicaVoxel @ Ephtracy
element vertex 270
property float x
property float y
property float z
property uchar red
property uchar green
property uchar blue
end_header
10 -6 0 57 38 19
14 -6 0 80 58 33
20 -6 0 80 58 33
8 -5 0 198 147 70
9 -5 0 198 147 70
10 -5 0 151 112 58
8 -4 0 198 147 70
9 -4 0 151 112 58
10 -4 0 151 112 58
10 -3 0 57 38 19
18 -3 0 57 38 19
15 -2 0 80 58 33
9 0 0 135 138 130
21 0 0 80 58 33
9 1 0 57 38 19
10 1 0 151 112 58
19 3 0 57 38 19
14 5 0 80 58 33
14 -7 1 56 139 48
10 -6 1 80 58 33
13 -6 1 56 139 48
14 -6 1 80 58 33
15 -6 1 92 206 44
20 -6 1 56 139 48
8 -5 1 198 147 70
9 -5 1 198 147 70
10 -5 1 151 112 58
11 -5 1 198 147 70
14 -5 1 56 139 48
8 -4 1 198 147 70
9 -4 1 198 147 70
10 -4 1 198 147 70
11 -4 1 198 147 70
10 -3 1 80 58 33
15 -3 1 56 139 48
18 -3 1 57 38 19
14 -2 1 56 139 48
15 -2 1 80 58 33
16 -2 1 92 206 44
15 -1 1 56 139 48
21 0 1 56 139 48
9 1 1 57 38 19
12 3 1 80 58 33
19 3 1 80 58 33
14 5 1 56 139 48
8 -7 2 181 88 63
9 -7 2 136 65 46
10 -7 2 136 65 46
11 -7 2 136 65 46
10 -6 2 57 38 19
14 -6 2 92 206 44
8 -5 2 151 112 58
9 -5 2 151 112 58
10 -5 2 198 147 70
10 -3 2 80 58 33
15 -3 2 92 206 44
18 -3 2 80 58 33
14 -2 2 92 206 44
15 -2 2 80 58 33
16 -2 2 56 139 48
15 -1 2 92 206 44
12 3 2 80 58 33
19 3 2 80 58 33
8 -6 3 136 65 46
9 -6 3 136 65 46
10 -6 3 181 88 63
11 -6 3 136 65 46
8 -5 3 136 65 46
9 -5 3 136 65 46
10 -5 3 136 65 46
11 -5 3 181 88 63
9 -3 3 255 225 0
10 -3 3 80 58 33
18 -3 3 57 38 19
15 -2 3 92 206 44
12 0 3 41 116 71
18 0 3 56 139 48
19 0 3 41 116 71
20 0 3 56 139 48
11 1 3 41 116 71
13 1 3 56 139 48
17 1 3 41 116 71
21 1 3 41 116 71
10 2 3 41 116 71
14 2 3 41 116 71
16 2 3 56 139 48
22 2 3 41 116 71
9 3 3 56 139 48
12 3 3 80 58 33
15 3 3 41 116 71
16 3 3 41 116 71
19 3 3 80 58 33
22 3 3 56 139 48
10 4 3 41 116 71
14 4 3 56 139 48
16 4 3 41 116 71
22 4 3 41 116 71
11 5 3 56 139 48
13 5 3 41 116 71
17 5 3 56 139 48
21 5 3 41 116 71
12 6 3 56 139 48
18 6 3 56 139 48
19 6 3 41 116 71
20 6 3 56 139 48
8 -4 4 136 65 46
9 -4 4 181 88 63
10 -4 4 136 65 46
11 -4 4 136 65 46
8 -3 4 136 65 46
9 -3 4 136 65 46
10 -3 4 181 88 63
11 -3 4 181 88 63
18 -3 4 80 58 33
8 -2 4 181 88 63
9 -2 4 181 88 63
10 -2 4 181 88 63
11 -2 4 181 88 63
19 0 4 56 139 48
12 1 4 56 139 48
18 1 4 56 139 48
20 1 4 41 116 71
11 2 4 56 139 48
13 2 4 92 206 44
17 2 4 41 116 71
21 2 4 56 139 48
10 3 4 56 139 48
12 3 4 80 58 33
14 3 4 56 139 48
16 3 4 56 139 48
19 3 4 80 58 33
22 3 4 56 139 48
11 4 4 56 139 48
13 4 4 56 139 48
17 4 4 56 139 48
21 4 4 56 139 48
12 5 4 92 206 44
18 5 4 41 116 71
20 5 4 41 116 71
19 6 4 56 139 48
18 -3 5 80 58 33
18 1 5 41 116 71
19 1 5 41 116 71
20 1 5 56 139 48
12 2 5 41 116 71
17 2 5 56 139 48
21 2 5 56 139 48
11 3 5 56 139 48
12 3 5 80 58 33
13 3 5 56 139 48
16 3 5 35 88 67
17 3 5 41 116 71
19 3 5 80 58 33
21 3 5 41 116 71
12 4 5 41 116 71
17 4 5 41 116 71
21 4 5 41 116 71
18 5 5 56 139 48
19 5 5 41 116 71
20 5 5 92 206 44
18 -7 6 35 88 67
17 -6 6 35 88 67
19 -6 6 35 88 67
15 -4 6 35 88 67
21 -4 6 35 88 67
14 -3 6 35 88 67
18 -3 6 80 58 33
22 -3 6 35 88 67
15 -2 6 35 88 67
21 -2 6 35 88 67
17 0 6 35 88 67
19 0 6 35 88 67
19 1 6 92 206 44
12 2 6 56 139 48
18 2 6 56 139 48
20 2 6 41 116 71
11 3 6 92 206 44
12 3 6 80 58 33
13 3 6 56 139 48
17 3 6 92 206 44
19 3 6 80 58 33
21 3 6 92 206 44
12 4 6 56 139 48
18 4 6 56 139 48
20 4 6 56 139 48
19 5 6 56 139 48
18 -6 7 35 88 67
17 -5 7 35 88 67
19 -5 7 35 88 67
16 -4 7 35 88 67
20 -4 7 35 88 67
15 -3 7 35 88 67
18 -3 7 80 58 33
21 -3 7 41 116 71
16 -2 7 35 88 67
20 -2 7 35 88 67
17 -1 7 35 88 67
19 -1 7 35 88 67
18 0 7 35 88 67
19 2 7 56 139 48
12 3 7 56 139 48
18 3 7 56 139 48
19 3 7 57 38 19
20 3 7 56 139 48
19 4 7 41 116 71
18 -6 8 35 88 67
17 -5 8 41 116 71
19 -5 8 41 116 71
16 -4 8 41 116 71
20 -4 8 41 116 71
15 -3 8 41 116 71
18 -3 8 80 58 33
21 -3 8 35 88 67
16 -2 8 41 116 71
20 -2 8 41 116 71
17 -1 8 41 116 71
19 -1 8 35 88 67
18 0 8 41 116 71
19 2 8 92 206 44
12 3 8 56 139 48
18 3 8 56 139 48
19 3 8 57 38 19
20 3 8 56 139 48
19 4 8 56 139 48
18 -6 9 56 139 48
18 -5 9 35 88 67
17 -4 9 35 88 67
19 -4 9 35 88 67
15 -3 9 56 139 48
16 -3 9 35 88 67
18 -3 9 80 58 33
20 -3 9 41 116 71
21 -3 9 41 116 71
17 -2 9 41 116 71
19 -2 9 35 88 67
18 -1 9 35 88 67
18 0 9 56 139 48
12 3 9 92 206 44
19 3 9 56 139 48
18 -5 10 35 88 67
17 -4 10 41 116 71
19 -4 10 41 116 71
16 -3 10 35 88 67
18 -3 10 80 58 33
20 -3 10 35 88 67
17 -2 10 41 116 71
19 -2 10 41 116 71
18 -1 10 35 88 67
19 3 10 92 206 44
18 -5 11 41 116 71
18 -4 11 41 116 71
16 -3 11 41 116 71
17 -3 11 35 88 67
18 -3 11 80 58 33
19 -3 11 41 116 71
20 -3 11 56 139 48
18 -2 11 35 88 67
18 -1 11 41 116 71
19 3 11 92 206 44
18 -4 12 41 116 71
17 -3 12 41 116 71
18 -3 12 80 58 33
19 -3 12 35 88 67
18 -2 12 41 116 71
18 -4 13 56 139 48
17 -3 13 56 139 48
19 -3 13 41 116 71
18 -2 13 41 116 71
18 -3 14 41 116 71
18 -3 15 56 139 48
