ply
format ascii 1.0
comment : MagicaVoxel @ Ephtracy
element vertex 275
property float x
property float y
property float z
property uchar red
property uchar green
property uchar blue
end_header
-8 -7 0 80 58 33
-3 -7 0 57 38 19
-13 -6 0 57 38 19
-4 -6 0 151 112 58
-3 -6 0 198 147 70
-2 -6 0 198 147 70
-1 -6 0 198 147 70
-3 -5 0 151 112 58
-2 -5 0 198 147 70
-1 -5 0 198 147 70
-3 -4 0 57 38 19
-10 -3 0 57 38 19
-14 -1 0 80 58 33
-10 0 0 57 38 19
-3 0 0 80 58 33
-2 1 0 151 112 58
-15 2 0 80 58 33
-4 3 0 57 38 19
-10 4 0 80 58 33
-8 -8 1 56 139 48
-9 -7 1 56 139 48
-8 -7 1 80 58 33
-7 -7 1 56 139 48
-3 -7 1 80 58 33
-13 -6 1 57 38 19
-8 -6 1 56 139 48
-3 -6 1 151 112 58
-2 -6 1 198 147 70
-1 -6 1 198 147 70
-2 -5 1 151 112 58
-1 -5 1 198 147 70
-3 -4 1 80 58 33
-10 -3 1 80 58 33
-14 -2 1 41 116 71
-15 -1 1 41 116 71
-14 -1 1 80 58 33
-13 -1 1 41 116 71
-14 0 1 41 116 71
-10 0 1 57 38 19
-15 2 1 56 139 48
-4 3 1 80 58 33
-10 4 1 56 139 48
-4 -8 2 136 65 46
-3 -8 2 136 65 46
-2 -8 2 136 65 46
-1 -8 2 181 88 63
-8 -7 2 56 139 48
-3 -7 2 57 38 19
-13 -6 2 80 58 33
-2 -6 2 198 147 70
-1 -6 2 151 112 58
-10 -4 2 56 139 48
-3 -4 2 80 58 33
-11 -3 2 56 139 48
-10 -3 2 80 58 33
-9 -3 2 92 206 44
-10 -2 2 56 139 48
-14 -1 2 41 116 71
-10 0 2 57 38 19
-4 3 2 80 58 33
-8 -7 3 92 206 44
-4 -7 3 136 65 46
-3 -7 3 136 65 46
-2 -7 3 181 88 63
-1 -7 3 136 65 46
-13 -6 3 80 58 33
-4 -6 3 181 88 63
-3 -6 3 181 88 63
-2 -6 3 136 65 46
-1 -6 3 136 65 46
-10 -4 3 92 206 44
-3 -4 3 80 58 33
-11 -3 3 92 206 44
-10 -3 3 80 58 33
-9 -3 3 56 139 48
-10 -2 3 92 206 44
-10 0 3 57 38 19
-5 1 3 56 139 48
-4 1 3 41 116 71
-3 1 3 56 139 48
-6 2 3 56 139 48
-2 2 3 56 139 48
-6 3 3 56 139 48
-4 3 3 80 58 33
-2 3 3 41 116 71
-6 4 3 41 116 71
-2 4 3 56 139 48
-5 5 3 41 116 71
-4 5 3 56 139 48
-3 5 3 41 116 71
-14 -8 4 56 139 48
-13 -8 4 41 116 71
-12 -8 4 56 139 48
-15 -7 4 56 139 48
-11 -7 4 56 139 48
-15 -6 4 56 139 48
-13 -6 4 80 58 33
-11 -6 4 41 116 71
-15 -5 4 41 116 71
-11 -5 4 56 139 48
-4 -5 4 136 65 46
-3 -5 4 181 88 63
-2 -5 4 136 65 46
-1 -5 4 136 65 46
-14 -4 4 41 116 71
-13 -4 4 56 139 48
-12 -4 4 41 116 71
-4 -4 4 181 88 63
-3 -4 4 136 65 46
-2 -4 4 181 88 63
-1 -4 4 136 65 46
-10 -3 4 92 206 44
-4 -3 4 181 88 63
-3 -3 4 181 88 63
-2 -3 4 181 88 63
-1 -3 4 181 88 63
-10 0 4 80 58 33
-4 1 4 56 139 48
-5 2 4 41 116 71
-3 2 4 41 116 71
-6 3 4 56 139 48
-4 3 4 80 58 33
-2 3 4 56 139 48
-5 4 4 56 139 48
-3 4 4 56 139 48
-4 5 4 56 139 48
-13 -8 5 56 139 48
-14 -7 5 41 116 71
-12 -7 5 41 116 71
-15 -6 5 56 139 48
-13 -6 5 80 58 33
-11 -6 5 56 139 48
-14 -5 5 56 139 48
-12 -5 5 56 139 48
-13 -4 5 56 139 48
-10 0 5 57 38 19
-4 1 5 92 206 44
-5 2 5 56 139 48
-3 2 5 56 139 48
-6 3 5 92 206 44
-4 3 5 80 58 33
-2 3 5 56 139 48
-5 4 5 56 139 48
-3 4 5 56 139 48
-4 5 5 92 206 44
-13 -8 6 92 206 44
-14 -7 6 56 139 48
-12 -7 6 56 139 48
-15 -6 6 92 206 44
-13 -6 6 80 58 33
-11 -6 6 56 139 48
-14 -5 6 56 139 48
-12 -5 6 56 139 48
-13 -4 6 92 206 44
-10 0 6 80 58 33
-4 2 6 56 139 48
-5 3 6 56 139 48
-4 3 6 56 139 48
-3 3 6 92 206 44
-4 4 6 56 139 48
-13 -7 7 56 139 48
-14 -6 7 56 139 48
-13 -6 7 56 139 48
-12 -6 7 92 206 44
-13 -5 7 56 139 48
-10 0 7 80 58 33
-4 3 7 92 206 44
-13 -6 8 92 206 44
-10 -5 8 33 69 54
-11 -4 8 33 69 54
-9 -4 8 33 69 54
-13 -3 8 33 69 54
-7 -3 8 33 69 54
-14 -1 8 33 69 54
-6 -1 8 33 69 54
-15 0 8 33 69 54
-10 0 8 80 58 33
-5 0 8 33 69 54
-14 1 8 33 69 54
-6 1 8 33 69 54
-13 3 8 33 69 54
-7 3 8 33 69 54
-11 4 8 33 69 54
-9 4 8 33 69 54
-10 5 8 33 69 54
-10 -4 9 33 69 54
-11 -3 9 33 69 54
-9 -3 9 33 69 54
-12 -2 9 33 69 54
-8 -2 9 33 69 54
-13 -1 9 35 88 67
-7 -1 9 33 69 54
-14 0 9 33 69 54
-10 0 9 80 58 33
-6 0 9 35 88 67
-13 1 9 33 69 54
-7 1 9 33 69 54
-12 2 9 33 69 54
-8 2 9 33 69 54
-11 3 9 35 88 67
-9 3 9 33 69 54
-10 4 9 33 69 54
-10 -3 10 33 69 54
-11 -2 10 33 69 54
-9 -2 10 33 69 54
-12 -1 10 33 69 54
-8 -1 10 35 88 67
-13 0 10 33 69 54
-10 0 10 80 58 33
-7 0 10 33 69 54
-12 1 10 35 88 67
-8 1 10 35 88 67
-11 2 10 33 69 54
-9 2 10 33 69 54
-10 3 10 33 69 54
-10 -3 11 35 88 67
-11 -2 11 35 88 67
-9 -2 11 35 88 67
-12 -1 11 35 88 67
-8 -1 11 35 88 67
-13 0 11 35 88 67
-10 0 11 80 58 33
-7 0 11 35 88 67
-12 1 11 33 69 54
-8 1 11 41 116 71
-11 2 11 35 88 67
-9 2 11 35 88 67
-10 3 11 33 69 54
-10 -3 12 41 116 71
-10 -2 12 35 88 67
-11 -1 12 33 69 54
-9 -1 12 33 69 54
-13 0 12 41 116 71
-12 0 12 33 69 54
-10 0 12 80 58 33
-8 0 12 35 88 67
-7 0 12 41 116 71
-11 1 12 35 88 67
-9 1 12 33 69 54
-10 2 12 33 69 54
-10 3 12 35 88 67
-10 -2 13 35 88 67
-11 -1 13 41 116 71
-9 -1 13 41 116 71
-12 0 13 35 88 67
-10 0 13 80 58 33
-8 0 13 35 88 67
-11 1 13 35 88 67
-9 1 13 41 116 71
-10 2 13 35 88 67
-10 -2 14 41 116 71
-10 -1 14 35 88 67
-12 0 14 41 116 71
-11 0 14 33 69 54
-10 0 14 80 58 33
-9 0 14 33 69 54
-8 0 14 41 116 71
-10 1 14 35 88 67
-10 2 14 41 116 71
-10 -1 15 35 88 67
-11 0 15 35 88 67
-9 0 15 35 88 67
-10 1 15 41 116 71
-10 -1 16 35 88 67
-11 0 16 41 116 71
-9 0 16 41 116 71
-10 1 16 35 88 67
-10 -1 17 41 116 71
-11 0 17 41 116 71
-10 0 17 41 116 71
-9 0 17 41 116 71
-10 1 17 41 116 71
-10 0 18 41 116 71
-10 0 19 41 116 71
-10 0 20 41 116 71
