ply
format ascii 1.0
comment : MagicaVoxel @ Ephtracy
element vertex 272
property float x
property float y
property float z
property uchar red
property uchar green
property uchar blue
end_header
1 -7 0 57 38 19
4 -7 0 57 38 19
-5 -6 0 57 38 19
0 -6 0 151 112 58
1 -6 0 198 147 70
2 -6 0 198 147 70
3 -6 0 198 147 70
4 -6 0 198 147 70
5 -6 0 151 112 58
6 -6 0 198 147 70
1 -5 0 57 38 19
4 -5 0 57 38 19
-2 -3 0 80 58 33
-6 -1 0 80 58 33
-3 -1 0 80 58 33
-3 1 0 57 38 19
-7 2 0 80 58 33
3 2 0 57 38 19
-2 4 0 80 58 33
0 -8 1 136 65 46
1 -8 1 136 65 46
2 -8 1 136 65 46
3 -8 1 136 65 46
4 -8 1 136 65 46
5 -8 1 136 65 46
1 -7 1 136 65 46
4 -7 1 57 38 19
-5 -6 1 80 58 33
1 -6 1 198 147 70
2 -6 1 151 112 58
3 -6 1 151 112 58
4 -6 1 151 112 58
5 -6 1 198 147 70
1 -5 1 57 38 19
4 -5 1 80 58 33
-2 -4 1 56 139 48
-3 -3 1 56 139 48
-2 -3 1 80 58 33
-1 -3 1 92 206 44
-6 -2 1 41 116 71
-2 -2 1 56 139 48
-7 -1 1 41 116 71
-6 -1 1 80 58 33
-5 -1 1 41 116 71
-3 -1 1 56 139 48
-6 0 1 41 116 71
-3 1 1 57 38 19
-7 2 1 56 139 48
3 2 1 80 58 33
-2 4 1 56 139 48
0 -7 2 136 65 46
1 -7 2 181 88 63
2 -7 2 136 65 46
3 -7 2 136 65 46
4 -7 2 136 65 46
5 -7 2 181 88 63
-5 -6 2 80 58 33
0 -6 2 136 65 46
1 -6 2 136 65 46
2 -6 2 181 88 63
3 -6 2 136 65 46
4 -6 2 136 65 46
5 -6 2 136 65 46
1 -5 2 57 38 19
3 -5 2 255 225 0
4 -5 2 57 38 19
-2 -4 2 92 206 44
-3 -3 2 92 206 44
-2 -3 2 80 58 33
-1 -3 2 56 139 48
-2 -2 2 92 206 44
-6 -1 2 41 116 71
-3 1 2 80 58 33
3 2 2 80 58 33
-6 -8 3 56 139 48
-5 -8 3 41 116 71
-4 -8 3 56 139 48
-7 -7 3 56 139 48
-3 -7 3 56 139 48
-7 -6 3 56 139 48
-5 -6 3 80 58 33
-3 -6 3 41 116 71
-7 -5 3 41 116 71
-3 -5 3 56 139 48
0 -5 3 181 88 63
1 -5 3 136 65 46
2 -5 3 136 65 46
3 -5 3 136 65 46
4 -5 3 181 88 63
5 -5 3 136 65 46
-6 -4 3 41 116 71
-5 -4 3 56 139 48
-4 -4 3 41 116 71
0 -4 3 136 65 46
1 -4 3 181 88 63
2 -4 3 181 88 63
3 -4 3 136 65 46
4 -4 3 136 65 46
5 -4 3 181 88 63
-2 -3 3 92 206 44
2 -1 3 56 139 48
3 -1 3 41 116 71
4 -1 3 56 139 48
1 0 3 41 116 71
5 0 3 41 116 71
-3 1 3 57 38 19
0 1 3 56 139 48
6 1 3 41 116 71
0 2 3 41 116 71
3 2 3 80 58 33
6 2 3 56 139 48
0 3 3 41 116 71
6 3 3 41 116 71
1 4 3 56 139 48
5 4 3 41 116 71
2 5 3 56 139 48
3 5 3 41 116 71
4 5 3 56 139 48
-5 -8 4 56 139 48
-6 -7 4 41 116 71
-4 -7 4 41 116 71
-7 -6 4 56 139 48
-5 -6 4 80 58 33
-3 -6 4 56 139 48
-6 -5 4 56 139 48
-4 -5 4 56 139 48
-5 -4 4 56 139 48
3 -1 4 56 139 48
2 0 4 56 139 48
4 0 4 41 116 71
-3 1 4 80 58 33
1 1 4 41 116 71
5 1 4 56 139 48
0 2 4 56 139 48
3 2 4 80 58 33
6 2 4 56 139 48
1 3 4 56 139 48
5 3 4 56 139 48
2 4 4 41 116 71
4 4 4 41 116 71
3 5 4 56 139 48
-5 -8 5 92 206 44
-6 -7 5 56 139 48
-4 -7 5 56 139 48
-7 -6 5 92 206 44
-5 -6 5 80 58 33
-3 -6 5 56 139 48
-6 -5 5 56 139 48
-4 -5 5 56 139 48
-5 -4 5 92 206 44
-3 -3 5 35 88 67
-4 -2 5 35 88 67
-2 -2 5 35 88 67
-6 0 5 35 88 67
0 0 5 35 88 67
2 0 5 56 139 48
3 0 5 41 116 71
4 0 5 56 139 48
-7 1 5 35 88 67
-3 1 5 80 58 33
1 1 5 56 139 48
5 1 5 56 139 48
-6 2 5 35 88 67
0 2 5 35 88 67
1 2 5 41 116 71
3 2 5 80 58 33
5 2 5 41 116 71
1 3 5 41 116 71
5 3 5 41 116 71
-4 4 5 35 88 67
-2 4 5 35 88 67
2 4 5 56 139 48
3 4 5 41 116 71
4 4 5 92 206 44
-3 5 5 41 116 71
-5 -7 6 56 139 48
-6 -6 6 56 139 48
-5 -6 6 56 139 48
-4 -6 6 92 206 44
-5 -5 6 56 139 48
-3 -2 6 35 88 67
-4 -1 6 35 88 67
-2 -1 6 35 88 67
-5 0 6 35 88 67
-1 0 6 35 88 67
3 0 6 92 206 44
-6 1 6 35 88 67
-3 1 6 80 58 33
0 1 6 41 116 71
2 1 6 56 139 48
4 1 6 41 116 71
-5 2 6 35 88 67
-1 2 6 35 88 67
1 2 6 92 206 44
3 2 6 80 58 33
5 2 6 92 206 44
-4 3 6 35 88 67
-2 3 6 35 88 67
2 3 6 56 139 48
4 3 6 56 139 48
-3 4 6 35 88 67
3 4 6 56 139 48
-5 -6 7 92 206 44
-3 -2 7 35 88 67
-4 -1 7 41 116 71
-2 -1 7 41 116 71
-5 0 7 41 116 71
-1 0 7 41 116 71
-6 1 7 41 116 71
-3 1 7 80 58 33
0 1 7 35 88 67
3 1 7 56 139 48
-5 2 7 41 116 71
-1 2 7 41 116 71
2 2 7 56 139 48
3 2 7 57 38 19
4 2 7 56 139 48
-4 3 7 41 116 71
-2 3 7 35 88 67
3 3 7 41 116 71
-3 4 7 41 116 71
-3 -2 8 56 139 48
-3 -1 8 35 88 67
-4 0 8 35 88 67
-2 0 8 35 88 67
-6 1 8 56 139 48
-5 1 8 35 88 67
-3 1 8 80 58 33
-1 1 8 41 116 71
0 1 8 41 116 71
3 1 8 92 206 44
-4 2 8 41 116 71
-2 2 8 35 88 67
2 2 8 56 139 48
3 2 8 57 38 19
4 2 8 56 139 48
-3 3 8 35 88 67
3 3 8 56 139 48
-3 4 8 56 139 48
-3 -1 9 35 88 67
-4 0 9 41 116 71
-2 0 9 41 116 71
-5 1 9 35 88 67
-3 1 9 80 58 33
-1 1 9 35 88 67
-4 2 9 41 116 71
-2 2 9 41 116 71
3 2 9 56 139 48
-3 3 9 35 88 67
-3 -1 10 41 116 71
-3 0 10 41 116 71
-5 1 10 41 116 71
-4 1 10 35 88 67
-3 1 10 80 58 33
-2 1 10 41 116 71
-1 1 10 56 139 48
-3 2 10 35 88 67
3 2 10 92 206 44
-3 3 10 41 116 71
-3 0 11 41 116 71
-4 1 11 41 116 71
-3 1 11 80 58 33
-2 1 11 35 88 67
-3 2 11 41 116 71
3 2 11 92 206 44
-3 0 12 56 139 48
-4 1 12 56 139 48
-3 1 12 80 58 33
-2 1 12 41 116 71
-3 2 12 41 116 71
-3 1 13 41 116 71
-3 1 14 56 139 48
