ply
format ascii 1.0
comment : MagicaVoxel @ Ephtracy
element vertex 303
property float x
property float y
property float z
property uchar red
property uchar green
property uchar blue
end_header
-11 -14 0 80 58 33
-8 -14 0 80 58 33
-7 -14 0 83 136 90
-6 -14 0 83 136 90
-5 -14 0 99 156 96
-4 -14 0 83 136 90
-3 -14 0 99 156 96
-2 -14 0 99 156 96
-10 -13 0 135 138 130
-9 -13 0 197 200 189
-8 -13 0 135 138 130
-7 -13 0 99 156 96
-6 -13 0 83 136 90
-5 -13 0 197 200 189
-4 -13 0 83 136 90
-3 -13 0 197 200 189
-2 -13 0 99 156 96
-1 -13 0 83 136 90
-10 -12 0 135 138 130
-9 -12 0 197 200 189
-8 -12 0 135 138 130
-7 -12 0 83 136 90
-6 -12 0 99 156 96
-5 -12 0 197 200 189
-4 -12 0 83 136 90
-3 -12 0 197 200 189
-2 -12 0 83 136 90
-1 -12 0 83 136 90
-11 -11 0 80 58 33
-10 -11 0 83 136 90
-9 -11 0 83 136 90
-8 -11 0 80 58 33
-1 -11 0 99 156 96
-11 -10 0 99 156 96
-10 -10 0 83 136 90
-9 -10 0 125 201 98
-11 -9 0 83 136 90
-10 -9 0 83 136 90
-12 -8 0 83 136 90
-11 -8 0 83 136 90
-10 -8 0 99 156 96
-12 -7 0 99 156 96
-11 -7 0 83 136 90
-10 -7 0 125 201 98
-12 -6 0 83 136 90
-11 -6 0 99 156 96
-12 -5 0 83 136 90
-13 -4 0 83 136 90
-12 -4 0 83 136 90
-13 -3 0 83 136 90
-12 -3 0 99 156 96
-14 -2 0 83 136 90
-13 -2 0 99 156 96
-14 -1 0 83 136 90
-13 -1 0 83 136 90
-11 -14 1 151 112 58
-8 -14 1 151 112 58
-10 -13 1 197 200 189
-9 -13 1 135 138 130
-8 -13 1 135 138 130
-2 -13 1 206 96 200
-11 -12 1 197 200 189
-10 -12 1 135 138 130
-9 -12 1 135 138 130
-5 -12 1 135 138 130
-11 -11 1 151 112 58
-8 -11 1 151 112 58
-7 -11 1 83 136 90
-6 -11 1 125 201 98
-5 -11 1 197 200 189
-4 -11 1 99 156 96
-3 -11 1 197 200 189
-2 -11 1 125 201 98
-8 -10 1 83 136 90
-7 -10 1 99 156 96
-6 -10 1 83 136 90
-5 -10 1 197 200 189
-4 -10 1 99 156 96
-3 -10 1 197 200 189
-2 -10 1 83 136 90
-1 -10 1 83 136 90
-10 -9 1 76 181 223
-9 -9 1 83 136 90
-8 -9 1 99 156 96
-7 -9 1 83 136 90
-6 -9 1 83 136 90
-5 -9 1 197 200 189
-4 -9 1 83 136 90
-3 -9 1 197 200 189
-2 -9 1 83 136 90
-1 -9 1 83 136 90
-9 -8 1 83 136 90
-8 -8 1 99 156 96
-7 -8 1 125 201 98
-1 -8 1 99 156 96
-9 -7 1 99 156 96
-8 -7 1 83 136 90
-7 -7 1 125 201 98
-10 -6 1 83 136 90
-9 -6 1 83 136 90
-8 -6 1 83 136 90
-7 -6 1 99 156 96
-12 -5 1 206 96 200
-11 -5 1 83 136 90
-10 -5 1 83 136 90
-9 -5 1 99 156 96
-8 -5 1 125 201 98
-7 -5 1 99 156 96
-11 -4 1 99 156 96
-10 -4 1 83 136 90
-9 -4 1 83 136 90
-8 -4 1 99 156 96
-11 -3 1 125 201 98
-10 -3 1 83 136 90
-9 -3 1 99 156 96
-12 -2 1 83 136 90
-11 -2 1 83 136 90
-10 -2 1 99 156 96
-9 -2 1 99 156 96
-12 -1 1 83 136 90
-11 -1 1 99 156 96
-10 -1 1 99 156 96
-11 -13 2 197 200 189
-10 -13 2 135 138 130
-9 -13 2 135 138 130
-3 -11 2 135 138 130
-6 -10 2 86 86 86
-2 -10 2 86 86 86
-6 -9 2 86 86 86
-5 -9 2 54 54 54
-4 -9 2 54 54 54
-3 -9 2 54 54 54
-2 -9 2 86 86 86
-6 -8 2 86 86 86
-2 -8 2 86 86 86
-8 -7 2 217 203 181
-6 -7 2 86 86 86
-2 -7 2 83 136 90
-1 -7 2 83 136 90
-10 -6 2 217 203 181
-6 -6 2 86 86 86
-2 -6 2 83 136 90
-1 -6 2 83 136 90
-6 -5 2 83 136 90
-2 -5 2 83 136 90
-1 -5 2 99 156 96
-7 -4 2 99 156 96
-6 -4 2 83 136 90
-2 -4 2 83 136 90
-1 -4 2 125 201 98
-11 -3 2 217 203 181
-8 -3 2 83 136 90
-7 -3 2 99 156 96
-6 -3 2 83 136 90
-5 -3 2 197 200 189
-4 -3 2 125 201 98
-3 -3 2 197 200 189
-2 -3 2 83 136 90
-1 -3 2 83 136 90
-8 -2 2 99 156 96
-7 -2 2 99 156 96
-6 -2 2 99 156 96
-5 -2 2 197 200 189
-4 -2 2 125 201 98
-3 -2 2 197 200 189
-2 -2 2 99 156 96
-1 -2 2 125 201 98
-9 -1 2 99 156 96
-8 -1 2 83 136 90
-7 -1 2 99 156 96
-6 -1 2 125 201 98
-5 -1 2 197 200 189
-4 -1 2 99 156 96
-3 -1 2 197 200 189
-2 -1 2 99 156 96
-1 -1 2 99 156 96
-6 -10 3 86 86 86
-2 -10 3 86 86 86
-6 -9 3 86 86 86
-5 -9 3 54 54 54
-4 -9 3 54 54 54
-3 -9 3 54 54 54
-2 -9 3 114 114 114
-6 -8 3 114 114 114
-2 -8 3 86 86 86
-8 -7 3 76 181 223
-6 -7 3 86 86 86
-2 -7 3 86 86 86
-10 -6 3 55 101 195
-6 -6 3 86 86 86
-2 -6 3 86 86 86
-6 -5 3 86 86 86
-2 -5 3 86 86 86
-11 -4 3 134 60 157
-6 -4 3 86 86 86
-5 -4 3 54 54 54
-4 -4 3 54 54 54
-3 -4 3 54 54 54
-2 -4 3 86 86 86
-12 -3 3 206 96 200
-11 -3 3 217 203 181
-10 -3 3 134 60 157
-6 -3 3 86 86 86
-2 -3 3 86 86 86
-11 -2 3 206 96 200
-6 -10 4 114 114 114
-2 -10 4 114 114 114
-6 -9 4 86 86 86
-5 -9 4 54 54 54
-4 -9 4 54 54 54
-3 -9 4 54 54 54
-2 -9 4 114 114 114
-6 -8 4 86 86 86
-2 -8 4 86 86 86
-6 -7 4 114 114 114
-2 -7 4 114 114 114
-6 -6 4 86 86 86
-2 -6 4 86 86 86
-6 -5 4 114 114 114
-2 -5 4 86 86 86
-6 -4 4 86 86 86
-5 -4 4 54 54 54
-4 -4 4 54 54 54
-3 -4 4 54 54 54
-2 -4 4 86 86 86
-11 -3 4 134 60 157
-6 -3 4 114 114 114
-2 -3 4 114 114 114
-6 -10 5 114 114 114
-5 -10 5 86 86 86
-4 -10 5 86 86 86
-3 -10 5 114 114 114
-2 -10 5 86 86 86
-6 -9 5 114 114 114
-5 -9 5 114 114 114
-4 -9 5 114 114 114
-3 -9 5 86 86 86
-2 -9 5 114 114 114
-6 -8 5 86 86 86
-5 -8 5 114 114 114
-4 -8 5 114 114 114
-3 -8 5 114 114 114
-2 -8 5 114 114 114
-6 -7 5 114 114 114
-2 -7 5 86 86 86
-5 -6 5 255 123 0
-4 -6 5 255 123 0
-3 -6 5 255 123 0
-5 -5 5 255 123 0
-4 -5 5 255 123 0
-3 -5 5 255 123 0
-6 -4 5 114 114 114
-5 -4 5 54 54 54
-4 -4 5 54 54 54
-3 -4 5 54 54 54
-2 -4 5 86 86 86
-6 -3 5 114 114 114
-2 -3 5 114 114 114
-6 -7 6 86 86 86
-5 -7 6 114 114 114
-4 -7 6 114 114 114
-3 -7 6 86 86 86
-2 -7 6 86 86 86
-6 -6 6 114 114 114
-2 -6 6 114 114 114
-6 -5 6 114 114 114
-2 -5 6 86 86 86
-6 -4 6 114 114 114
-2 -4 6 114 114 114
-6 -3 6 86 86 86
-5 -3 6 86 86 86
-4 -3 6 114 114 114
-3 -3 6 114 114 114
-2 -3 6 114 114 114
-5 -6 7 86 86 86
-4 -6 7 114 114 114
-3 -6 7 86 86 86
-5 -5 7 114 114 114
-4 -5 7 255 123 0
-3 -5 7 114 114 114
-5 -4 7 86 86 86
-4 -4 7 114 114 114
-3 -4 7 86 86 86
-5 -6 8 114 114 114
-4 -6 8 114 114 114
-3 -6 8 114 114 114
-5 -5 8 114 114 114
-3 -5 8 114 114 114
-5 -4 8 114 114 114
-4 -4 8 114 114 114
-3 -4 8 114 114 114
-5 -6 9 114 114 114
-4 -6 9 135 138 130
-3 -6 9 114 114 114
-5 -5 9 135 138 130
-3 -5 9 135 138 130
-5 -4 9 114 114 114
-4 -4 9 135 138 130
-3 -4 9 114 114 114
-5 -6 10 135 138 130
-3 -6 10 135 138 130
-5 -4 10 135 138 130
-3 -4 10 135 138 130
