ply
format ascii 1.0
comment : MagicaVoxel @ Ephtracy
element vertex 248
property float x
property float y
property float z
property uchar red
property uchar green
property uchar blue
end_header
-3 -6 1 151 112 58
0 -6 1 151 112 58
-2 -5 1 197 200 189
-1 -5 1 135 138 130
0 -5 1 135 138 130
6 -5 1 206 96 200
-3 -4 1 197 200 189
-2 -4 1 135 138 130
-1 -4 1 135 138 130
3 -4 1 135 138 130
-3 -3 1 151 112 58
0 -3 1 151 112 58
1 -3 1 83 136 90
2 -3 1 125 201 98
3 -3 1 197 200 189
4 -3 1 99 156 96
5 -3 1 197 200 189
6 -3 1 125 201 98
0 -2 1 83 136 90
1 -2 1 99 156 96
2 -2 1 83 136 90
3 -2 1 197 200 189
4 -2 1 99 156 96
5 -2 1 197 200 189
6 -2 1 83 136 90
7 -2 1 83 136 90
-2 -1 1 76 181 223
-1 -1 1 83 136 90
0 -1 1 99 156 96
1 -1 1 83 136 90
2 -1 1 83 136 90
3 -1 1 197 200 189
4 -1 1 83 136 90
5 -1 1 197 200 189
6 -1 1 83 136 90
7 -1 1 83 136 90
-1 0 1 83 136 90
0 0 1 99 156 96
1 0 1 125 201 98
7 0 1 99 156 96
-1 1 1 99 156 96
0 1 1 83 136 90
1 1 1 125 201 98
-2 2 1 83 136 90
-1 2 1 83 136 90
0 2 1 83 136 90
1 2 1 99 156 96
-4 3 1 206 96 200
-3 3 1 83 136 90
-2 3 1 83 136 90
-1 3 1 99 156 96
0 3 1 125 201 98
1 3 1 99 156 96
-3 4 1 99 156 96
-2 4 1 83 136 90
-1 4 1 83 136 90
0 4 1 99 156 96
-3 5 1 125 201 98
-2 5 1 83 136 90
-1 5 1 99 156 96
-4 6 1 83 136 90
-3 6 1 83 136 90
-2 6 1 99 156 96
-1 6 1 99 156 96
-4 7 1 83 136 90
-3 7 1 99 156 96
-2 7 1 99 156 96
-3 -5 2 197 200 189
-2 -5 2 135 138 130
-1 -5 2 135 138 130
5 -3 2 135 138 130
2 -2 2 86 86 86
6 -2 2 86 86 86
2 -1 2 86 86 86
3 -1 2 54 54 54
4 -1 2 54 54 54
5 -1 2 54 54 54
6 -1 2 86 86 86
2 0 2 86 86 86
6 0 2 86 86 86
0 1 2 217 203 181
2 1 2 86 86 86
6 1 2 83 136 90
7 1 2 83 136 90
-2 2 2 217 203 181
2 2 2 86 86 86
6 2 2 83 136 90
7 2 2 83 136 90
2 3 2 83 136 90
6 3 2 83 136 90
7 3 2 99 156 96
1 4 2 99 156 96
2 4 2 83 136 90
6 4 2 83 136 90
7 4 2 125 201 98
-3 5 2 217 203 181
0 5 2 83 136 90
1 5 2 99 156 96
2 5 2 83 136 90
3 5 2 197 200 189
4 5 2 125 201 98
5 5 2 197 200 189
6 5 2 83 136 90
7 5 2 83 136 90
0 6 2 99 156 96
1 6 2 99 156 96
2 6 2 99 156 96
3 6 2 197 200 189
4 6 2 125 201 98
5 6 2 197 200 189
6 6 2 99 156 96
7 6 2 125 201 98
-1 7 2 99 156 96
0 7 2 83 136 90
1 7 2 99 156 96
2 7 2 125 201 98
3 7 2 197 200 189
4 7 2 99 156 96
5 7 2 197 200 189
6 7 2 99 156 96
7 7 2 99 156 96
2 -2 3 86 86 86
6 -2 3 86 86 86
2 -1 3 86 86 86
3 -1 3 54 54 54
4 -1 3 54 54 54
5 -1 3 54 54 54
6 -1 3 114 114 114
2 0 3 114 114 114
6 0 3 86 86 86
0 1 3 76 181 223
2 1 3 86 86 86
6 1 3 86 86 86
-2 2 3 55 101 195
2 2 3 86 86 86
6 2 3 86 86 86
2 3 3 86 86 86
6 3 3 86 86 86
-3 4 3 134 60 157
2 4 3 86 86 86
3 4 3 54 54 54
4 4 3 54 54 54
5 4 3 54 54 54
6 4 3 86 86 86
-4 5 3 206 96 200
-3 5 3 217 203 181
-2 5 3 134 60 157
2 5 3 86 86 86
6 5 3 86 86 86
-3 6 3 206 96 200
2 -2 4 114 114 114
6 -2 4 114 114 114
2 -1 4 86 86 86
3 -1 4 54 54 54
4 -1 4 54 54 54
5 -1 4 54 54 54
6 -1 4 114 114 114
2 0 4 86 86 86
6 0 4 86 86 86
2 1 4 114 114 114
6 1 4 114 114 114
2 2 4 86 86 86
6 2 4 86 86 86
2 3 4 114 114 114
6 3 4 86 86 86
2 4 4 86 86 86
3 4 4 54 54 54
4 4 4 54 54 54
5 4 4 54 54 54
6 4 4 86 86 86
-3 5 4 134 60 157
2 5 4 114 114 114
6 5 4 114 114 114
2 -2 5 114 114 114
3 -2 5 86 86 86
4 -2 5 86 86 86
5 -2 5 114 114 114
6 -2 5 86 86 86
2 -1 5 114 114 114
3 -1 5 114 114 114
4 -1 5 114 114 114
5 -1 5 86 86 86
6 -1 5 114 114 114
2 0 5 86 86 86
3 0 5 114 114 114
4 0 5 114 114 114
5 0 5 114 114 114
6 0 5 114 114 114
2 1 5 114 114 114
6 1 5 86 86 86
3 2 5 255 123 0
4 2 5 255 123 0
5 2 5 255 123 0
3 3 5 255 123 0
4 3 5 255 123 0
5 3 5 255 123 0
2 4 5 114 114 114
3 4 5 54 54 54
4 4 5 54 54 54
5 4 5 54 54 54
6 4 5 86 86 86
2 5 5 114 114 114
6 5 5 114 114 114
2 1 6 86 86 86
3 1 6 114 114 114
4 1 6 114 114 114
5 1 6 86 86 86
6 1 6 86 86 86
2 2 6 114 114 114
6 2 6 114 114 114
2 3 6 114 114 114
6 3 6 86 86 86
2 4 6 114 114 114
6 4 6 114 114 114
2 5 6 86 86 86
3 5 6 86 86 86
4 5 6 114 114 114
5 5 6 114 114 114
6 5 6 114 114 114
3 2 7 86 86 86
4 2 7 114 114 114
5 2 7 86 86 86
3 3 7 114 114 114
4 3 7 255 123 0
5 3 7 114 114 114
3 4 7 86 86 86
4 4 7 114 114 114
5 4 7 86 86 86
3 2 8 114 114 114
4 2 8 114 114 114
5 2 8 114 114 114
3 3 8 114 114 114
5 3 8 114 114 114
3 4 8 114 114 114
4 4 8 114 114 114
5 4 8 114 114 114
3 2 9 114 114 114
4 2 9 135 138 130
5 2 9 114 114 114
3 3 9 135 138 130
5 3 9 135 138 130
3 4 9 114 114 114
4 4 9 135 138 130
5 4 9 114 114 114
3 2 10 135 138 130
5 2 10 135 138 130
3 4 10 135 138 130
5 4 10 135 138 130
