ply
format ascii 1.0
comment : MagicaVoxel @ Ephtracy
element vertex 810
property float x
property float y
property float z
property uchar red
property uchar green
property uchar blue
end_header
5 -8 0 99 156 96
6 -8 0 83 136 90
6 -7 0 99 156 96
6 -6 0 83 136 90
6 -5 0 83 136 90
6 -4 0 83 136 90
6 -3 0 83 136 90
6 -2 0 83 136 90
6 -1 0 83 136 90
6 0 0 83 136 90
6 1 0 83 136 90
6 2 0 83 136 90
6 3 0 83 136 90
6 4 0 83 136 90
-8 5 0 83 136 90
-7 5 0 83 136 90
6 5 0 83 136 90
-6 6 0 83 136 90
-5 6 0 83 136 90
-4 6 0 83 136 90
-3 6 0 83 136 90
-2 6 0 83 136 90
-1 6 0 83 136 90
0 6 0 83 136 90
1 6 0 83 136 90
2 6 0 83 136 90
3 6 0 83 136 90
4 6 0 83 136 90
5 6 0 83 136 90
4 -8 1 99 156 96
4 -7 1 83 136 90
5 -7 1 99 156 96
6 -6 1 99 156 96
6 -5 1 99 156 96
6 -4 1 99 156 96
6 -3 1 83 136 90
6 -2 1 83 136 90
6 -1 1 83 136 90
6 0 1 83 136 90
6 1 1 99 156 96
6 2 1 99 156 96
6 3 1 99 156 96
-8 4 1 99 156 96
6 4 1 99 156 96
-7 5 1 99 156 96
-6 5 1 99 156 96
-5 5 1 83 136 90
5 5 1 99 156 96
-4 6 1 99 156 96
-3 6 1 99 156 96
-2 6 1 83 136 90
-1 6 1 99 156 96
0 6 1 99 156 96
1 6 1 83 136 90
2 6 1 99 156 96
3 6 1 83 136 90
4 6 1 99 156 96
-8 -8 2 99 156 96
-7 -8 2 125 201 98
-6 -8 2 125 201 98
-5 -8 2 99 156 96
-4 -8 2 125 201 98
-3 -8 2 125 201 98
-2 -8 2 125 201 98
-1 -8 2 125 201 98
0 -8 2 180 201 98
1 -8 2 125 201 98
2 -8 2 125 201 98
3 -8 2 99 156 96
-8 -7 2 99 156 96
-7 -7 2 99 156 96
-6 -7 2 125 201 98
-5 -7 2 99 156 96
-4 -7 2 99 156 96
-3 -7 2 99 156 96
-2 -7 2 83 136 90
-1 -7 2 180 201 98
0 -7 2 125 201 98
1 -7 2 83 136 90
2 -7 2 125 201 98
3 -7 2 125 201 98
4 -7 2 99 156 96
-8 -6 2 83 136 90
-7 -6 2 83 136 90
-6 -6 2 83 136 90
-5 -6 2 83 136 90
-4 -6 2 83 136 90
-3 -6 2 83 136 90
-2 -6 2 83 136 90
-1 -6 2 180 201 98
0 -6 2 125 201 98
1 -6 2 83 136 90
2 -6 2 83 136 90
3 -6 2 83 136 90
4 -6 2 83 136 90
5 -6 2 83 136 90
6 -6 2 83 136 90
-8 -5 2 99 156 96
-2 -5 2 99 156 96
-1 -5 2 99 156 96
0 -5 2 125 201 98
1 -5 2 99 156 96
6 -5 2 99 156 96
-2 -4 2 125 201 98
-1 -4 2 125 201 98
0 -4 2 180 201 98
1 -4 2 99 156 96
6 -4 2 99 156 96
-2 -3 2 99 156 96
-1 -3 2 180 201 98
0 -3 2 125 201 98
1 -3 2 99 156 96
6 -3 2 99 156 96
-2 -2 2 125 201 98
-1 -2 2 125 201 98
0 -2 2 180 201 98
1 -2 2 125 201 98
6 -2 2 99 156 96
-8 -1 2 197 200 189
-2 -1 2 125 201 98
-1 -1 2 180 201 98
0 -1 2 180 201 98
1 -1 2 125 201 98
6 -1 2 99 156 96
-8 0 2 99 156 96
-1 0 2 54 54 54
0 0 2 54 54 54
6 0 2 83 136 90
-8 1 2 197 200 189
6 1 2 83 136 90
6 2 2 83 136 90
-8 3 2 99 156 96
6 3 2 99 156 96
-7 4 2 99 156 96
5 4 2 99 156 96
6 4 2 99 156 96
-7 5 2 206 96 200
-6 5 2 125 201 98
-5 5 2 99 156 96
-4 5 2 83 136 90
-3 5 2 83 136 90
-2 5 2 83 136 90
-1 5 2 83 136 90
0 5 2 125 201 98
1 5 2 99 156 96
2 5 2 99 156 96
3 5 2 99 156 96
4 5 2 99 156 96
-2 6 2 99 156 96
-1 6 2 99 156 96
0 6 2 99 156 96
1 6 2 99 156 96
-2 -7 3 135 138 130
1 -7 3 135 138 130
4 -7 3 55 101 195
-7 -6 3 86 86 86
-6 -6 3 86 86 86
-5 -6 3 86 86 86
-4 -6 3 86 86 86
-3 -6 3 86 86 86
-2 -6 3 86 86 86
1 -6 3 114 114 114
2 -6 3 86 86 86
3 -6 3 86 86 86
4 -6 3 86 86 86
5 -6 3 86 86 86
6 -6 3 86 86 86
-7 -5 3 99 156 96
-3 -5 3 114 114 114
2 -5 3 86 86 86
6 -5 3 86 86 86
-8 -4 3 99 156 96
-3 -4 3 114 114 114
2 -4 3 86 86 86
6 -4 3 86 86 86
-8 -3 3 83 136 90
-3 -3 3 114 114 114
2 -3 3 86 86 86
6 -3 3 125 201 98
-8 -2 3 83 136 90
-3 -2 3 114 114 114
2 -2 3 86 86 86
6 -2 3 99 156 96
-7 -1 3 54 54 54
-3 -1 3 114 114 114
2 -1 3 86 86 86
6 -1 3 99 156 96
-7 0 3 54 54 54
-2 0 3 86 86 86
1 0 3 86 86 86
6 0 3 99 156 96
-7 1 3 54 54 54
-1 1 3 54 54 54
0 1 3 54 54 54
6 1 3 99 156 96
-8 2 3 83 136 90
6 2 3 99 156 96
-8 3 3 83 136 90
6 3 3 125 201 98
-7 4 3 86 86 86
-6 4 3 86 86 86
-5 4 3 86 86 86
-4 4 3 114 114 114
-3 4 3 114 114 114
-2 4 3 86 86 86
-1 4 3 99 156 96
0 4 3 99 156 96
1 4 3 125 201 98
2 4 3 99 156 96
3 4 3 99 156 96
4 4 3 86 86 86
5 4 3 86 86 86
6 4 3 86 86 86
-4 5 3 125 201 98
-3 5 3 99 156 96
-2 5 3 99 156 96
-1 5 3 83 136 90
0 5 3 83 136 90
1 5 3 99 156 96
2 5 3 125 201 98
-2 -7 4 255 225 0
1 -7 4 255 225 0
-7 -6 4 86 86 86
-6 -6 4 86 86 86
-5 -6 4 86 86 86
-4 -6 4 86 86 86
-3 -6 4 114 114 114
-2 -6 4 114 114 114
1 -6 4 86 86 86
2 -6 4 114 114 114
3 -6 4 86 86 86
4 -6 4 86 86 86
5 -6 4 86 86 86
6 -6 4 114 114 114
-7 -5 4 86 86 86
-3 -5 4 114 114 114
2 -5 4 86 86 86
6 -5 4 86 86 86
-7 -4 4 114 114 114
-3 -4 4 114 114 114
2 -4 4 86 86 86
6 -4 4 86 86 86
-8 -3 4 99 156 96
-7 -3 4 114 114 114
-3 -3 4 114 114 114
2 -3 4 86 86 86
6 -3 4 86 86 86
-8 -2 4 83 136 90
-7 -2 4 114 114 114
-3 -2 4 114 114 114
2 -2 4 86 86 86
6 -2 4 86 86 86
-7 -1 4 54 54 54
-3 -1 4 114 114 114
2 -1 4 86 86 86
6 -1 4 125 201 98
-7 0 4 54 54 54
-2 0 4 86 86 86
1 0 4 86 86 86
6 0 4 99 156 96
-7 1 4 54 54 54
-1 1 4 54 54 54
0 1 4 54 54 54
6 1 4 125 201 98
-8 2 4 83 136 90
6 2 4 86 86 86
-8 3 4 83 136 90
6 3 4 86 86 86
-7 4 4 86 86 86
-6 4 4 114 114 114
-5 4 4 86 86 86
-4 4 4 86 86 86
-3 4 4 114 114 114
-2 4 4 86 86 86
-1 4 4 86 86 86
0 4 4 99 156 96
1 4 4 125 201 98
2 4 4 86 86 86
3 4 4 86 86 86
4 4 4 86 86 86
5 4 4 86 86 86
6 4 4 86 86 86
-3 5 4 125 201 98
-2 5 4 99 156 96
-1 5 4 99 156 96
0 5 4 83 136 90
-7 -6 5 114 114 114
-6 -6 5 114 114 114
-5 -6 5 114 114 114
-4 -6 5 86 86 86
-3 -6 5 114 114 114
-2 -6 5 114 114 114
1 -6 5 114 114 114
2 -6 5 86 86 86
3 -6 5 114 114 114
4 -6 5 86 86 86
5 -6 5 86 86 86
6 -6 5 86 86 86
-7 -5 5 86 86 86
-3 -5 5 114 114 114
2 -5 5 114 114 114
6 -5 5 114 114 114
-7 -4 5 86 86 86
-3 -4 5 114 114 114
2 -4 5 114 114 114
6 -4 5 114 114 114
-7 -3 5 86 86 86
-3 -3 5 114 114 114
2 -3 5 114 114 114
6 -3 5 86 86 86
-8 -2 5 83 136 90
-7 -2 5 114 114 114
-3 -2 5 114 114 114
2 -2 5 114 114 114
6 -2 5 114 114 114
-7 -1 5 54 54 54
-3 -1 5 114 114 114
2 -1 5 114 114 114
6 -1 5 86 86 86
-7 0 5 54 54 54
-2 0 5 86 86 86
-1 0 5 86 86 86
0 0 5 86 86 86
1 0 5 86 86 86
6 0 5 86 86 86
-7 1 5 54 54 54
-2 1 5 86 86 86
-1 1 5 86 86 86
0 1 5 86 86 86
6 1 5 114 114 114
-8 2 5 83 136 90
-2 2 5 86 86 86
-1 2 5 86 86 86
0 2 5 125 201 98
6 2 5 86 86 86
-8 3 5 83 136 90
-2 3 5 86 86 86
-1 3 5 86 86 86
0 3 5 86 86 86
6 3 5 114 114 114
-7 4 5 86 86 86
-6 4 5 114 114 114
-5 4 5 114 114 114
-4 4 5 86 86 86
-3 4 5 86 86 86
-2 4 5 86 86 86
-1 4 5 86 86 86
0 4 5 86 86 86
1 4 5 86 86 86
2 4 5 86 86 86
3 4 5 114 114 114
4 4 5 114 114 114
5 4 5 86 86 86
6 4 5 86 86 86
-7 -6 6 114 114 114
-5 -6 6 86 86 86
-3 -6 6 114 114 114
-2 -6 6 135 138 130
-1 -6 6 114 114 114
0 -6 6 114 114 114
1 -6 6 135 138 130
2 -6 6 114 114 114
4 -6 6 114 114 114
6 -6 6 114 114 114
-7 -5 6 114 114 114
-6 -5 6 54 54 54
-4 -5 6 54 54 54
-3 -5 6 114 114 114
2 -5 6 114 114 114
3 -5 6 54 54 54
5 -5 6 54 54 54
6 -5 6 114 114 114
-7 -4 6 86 86 86
-3 -4 6 114 114 114
2 -4 6 114 114 114
6 -4 6 86 86 86
-7 -3 6 86 86 86
-3 -3 6 114 114 114
2 -3 6 114 114 114
6 -3 6 114 114 114
-8 -2 6 136 65 46
-7 -2 6 114 114 114
-3 -2 6 114 114 114
2 -2 6 114 114 114
6 -2 6 114 114 114
-7 -1 6 114 114 114
-3 -1 6 114 114 114
2 -1 6 114 114 114
6 -1 6 114 114 114
-7 0 6 114 114 114
-3 0 6 114 114 114
-2 0 6 114 114 114
-1 0 6 86 86 86
0 0 6 86 86 86
1 0 6 86 86 86
2 0 6 86 86 86
6 0 6 86 86 86
-7 1 6 114 114 114
-3 1 6 114 114 114
-2 1 6 114 114 114
-1 1 6 86 86 86
0 1 6 86 86 86
1 1 6 86 86 86
6 1 6 114 114 114
-8 2 6 136 65 46
-7 2 6 114 114 114
-3 2 6 114 114 114
-2 2 6 86 86 86
-1 2 6 86 86 86
0 2 6 86 86 86
1 2 6 86 86 86
6 2 6 114 114 114
-7 3 6 86 86 86
-3 3 6 114 114 114
-2 3 6 86 86 86
-1 3 6 86 86 86
0 3 6 86 86 86
1 3 6 86 86 86
6 3 6 114 114 114
-7 4 6 114 114 114
-6 4 6 114 114 114
-5 4 6 114 114 114
-4 4 6 86 86 86
-3 4 6 114 114 114
-2 4 6 86 86 86
-1 4 6 86 86 86
0 4 6 114 114 114
1 4 6 86 86 86
2 4 6 114 114 114
3 4 6 86 86 86
4 4 6 86 86 86
5 4 6 114 114 114
6 4 6 86 86 86
-7 -6 7 114 114 114
-6 -6 7 114 114 114
-5 -6 7 86 86 86
-4 -6 7 114 114 114
-3 -6 7 114 114 114
-1 -6 7 135 138 130
0 -6 7 135 138 130
2 -6 7 114 114 114
3 -6 7 114 114 114
4 -6 7 86 86 86
5 -6 7 114 114 114
6 -6 7 114 114 114
-7 -5 7 86 86 86
-6 -5 7 114 114 114
-5 -5 7 114 114 114
-4 -5 7 114 114 114
-3 -5 7 114 114 114
2 -5 7 114 114 114
3 -5 7 114 114 114
4 -5 7 114 114 114
5 -5 7 114 114 114
6 -5 7 114 114 114
-7 -4 7 114 114 114
-6 -4 7 114 114 114
-5 -4 7 114 114 114
-4 -4 7 114 114 114
-3 -4 7 114 114 114
2 -4 7 114 114 114
3 -4 7 114 114 114
4 -4 7 114 114 114
5 -4 7 114 114 114
6 -4 7 86 86 86
-7 -3 7 114 114 114
-6 -3 7 114 114 114
-5 -3 7 114 114 114
-4 -3 7 114 114 114
-3 -3 7 114 114 114
2 -3 7 114 114 114
3 -3 7 114 114 114
4 -3 7 114 114 114
5 -3 7 114 114 114
6 -3 7 114 114 114
-7 -2 7 114 114 114
-6 -2 7 114 114 114
-5 -2 7 114 114 114
-4 -2 7 114 114 114
-3 -2 7 114 114 114
2 -2 7 114 114 114
3 -2 7 114 114 114
4 -2 7 114 114 114
5 -2 7 114 114 114
6 -2 7 114 114 114
-8 -1 7 136 65 46
-7 -1 7 114 114 114
-6 -1 7 114 114 114
-5 -1 7 114 114 114
-4 -1 7 114 114 114
-3 -1 7 114 114 114
2 -1 7 114 114 114
3 -1 7 114 114 114
4 -1 7 114 114 114
5 -1 7 114 114 114
6 -1 7 86 86 86
-8 0 7 136 65 46
-7 0 7 114 114 114
-6 0 7 114 114 114
-5 0 7 114 114 114
-4 0 7 114 114 114
-3 0 7 114 114 114
-2 0 7 114 114 114
-1 0 7 114 114 114
0 0 7 114 114 114
1 0 7 114 114 114
2 0 7 114 114 114
3 0 7 86 86 86
4 0 7 114 114 114
5 0 7 114 114 114
6 0 7 114 114 114
-8 1 7 136 65 46
-7 1 7 114 114 114
-3 1 7 114 114 114
-2 1 7 114 114 114
-1 1 7 114 114 114
0 1 7 114 114 114
1 1 7 114 114 114
2 1 7 114 114 114
3 1 7 86 86 86
4 1 7 114 114 114
5 1 7 114 114 114
6 1 7 114 114 114
-7 2 7 86 86 86
-3 2 7 114 114 114
-2 2 7 114 114 114
-1 2 7 114 114 114
0 2 7 114 114 114
1 2 7 114 114 114
2 2 7 54 54 54
6 2 7 114 114 114
-7 3 7 114 114 114
-3 3 7 114 114 114
-2 3 7 86 86 86
-1 3 7 114 114 114
0 3 7 114 114 114
1 3 7 114 114 114
2 3 7 54 54 54
6 3 7 86 86 86
-7 4 7 114 114 114
-6 4 7 114 114 114
-5 4 7 86 86 86
-4 4 7 114 114 114
-3 4 7 114 114 114
-2 4 7 114 114 114
-1 4 7 114 114 114
0 4 7 86 86 86
1 4 7 114 114 114
2 4 7 114 114 114
3 4 7 114 114 114
4 4 7 114 114 114
5 4 7 86 86 86
6 4 7 114 114 114
-7 -6 8 114 114 114
-6 -6 8 114 114 114
-5 -6 8 114 114 114
-4 -6 8 114 114 114
-3 -6 8 114 114 114
2 -6 8 114 114 114
3 -6 8 114 114 114
4 -6 8 114 114 114
5 -6 8 114 114 114
6 -6 8 114 114 114
-7 -5 8 114 114 114
-3 -5 8 114 114 114
2 -5 8 114 114 114
6 -5 8 114 114 114
-7 -4 8 114 114 114
-3 -4 8 114 114 114
2 -4 8 114 114 114
6 -4 8 114 114 114
-7 -3 8 114 114 114
-3 -3 8 114 114 114
2 -3 8 114 114 114
6 -3 8 114 114 114
-7 -2 8 114 114 114
-3 -2 8 114 114 114
2 -2 8 114 114 114
6 -2 8 114 114 114
-7 -1 8 114 114 114
-3 -1 8 114 114 114
2 -1 8 114 114 114
6 -1 8 114 114 114
-7 0 8 114 114 114
-6 0 8 114 114 114
-4 0 8 114 114 114
-3 0 8 114 114 114
-2 0 8 114 114 114
-1 0 8 114 114 114
0 0 8 114 114 114
1 0 8 114 114 114
2 0 8 114 114 114
3 0 8 114 114 114
5 0 8 114 114 114
6 0 8 114 114 114
-7 1 8 86 86 86
-6 1 8 114 114 114
-5 1 8 54 54 54
-4 1 8 114 114 114
-3 1 8 114 114 114
2 1 8 114 114 114
3 1 8 114 114 114
4 1 8 54 54 54
5 1 8 114 114 114
6 1 8 114 114 114
-7 2 8 114 114 114
-3 2 8 114 114 114
2 2 8 114 114 114
6 2 8 86 86 86
-7 3 8 114 114 114
-3 3 8 114 114 114
2 3 8 114 114 114
6 3 8 114 114 114
-7 4 8 114 114 114
-6 4 8 86 86 86
-5 4 8 114 114 114
-4 4 8 114 114 114
-3 4 8 114 114 114
-2 4 8 114 114 114
-1 4 8 114 114 114
0 4 8 114 114 114
1 4 8 114 114 114
2 4 8 114 114 114
3 4 8 114 114 114
4 4 8 114 114 114
5 4 8 86 86 86
6 4 8 114 114 114
-7 -6 9 135 138 130
-5 -6 9 135 138 130
-3 -6 9 135 138 130
2 -6 9 135 138 130
4 -6 9 135 138 130
6 -6 9 135 138 130
-7 -4 9 135 138 130
-3 -4 9 135 138 130
2 -4 9 135 138 130
6 -4 9 135 138 130
-7 -2 9 135 138 130
-3 -2 9 135 138 130
2 -2 9 135 138 130
6 -2 9 135 138 130
-7 0 9 114 114 114
-6 0 9 114 114 114
-4 0 9 114 114 114
-3 0 9 114 114 114
-2 0 9 135 138 130
1 0 9 135 138 130
2 0 9 114 114 114
3 0 9 114 114 114
5 0 9 114 114 114
6 0 9 114 114 114
-6 1 9 54 54 54
-5 1 9 54 54 54
-4 1 9 114 114 114
-3 1 9 114 114 114
2 1 9 114 114 114
3 1 9 114 114 114
4 1 9 54 54 54
5 1 9 54 54 54
-7 2 9 86 86 86
-3 2 9 114 114 114
2 2 9 114 114 114
6 2 9 86 86 86
-6 3 9 54 54 54
-4 3 9 54 54 54
-3 3 9 114 114 114
2 3 9 114 114 114
3 3 9 54 54 54
5 3 9 54 54 54
-7 4 9 114 114 114
-5 4 9 114 114 114
-3 4 9 114 114 114
-2 4 9 135 138 130
1 4 9 135 138 130
2 4 9 114 114 114
4 4 9 86 86 86
6 4 9 114 114 114
-3 -6 10 255 225 0
2 -4 10 255 225 0
-7 -2 10 255 225 0
-7 0 10 114 114 114
-6 0 10 114 114 114
-5 0 10 114 114 114
-4 0 10 114 114 114
-3 0 10 114 114 114
2 0 10 114 114 114
3 0 10 114 114 114
4 0 10 114 114 114
5 0 10 114 114 114
6 0 10 114 114 114
-7 1 10 86 86 86
-6 1 10 114 114 114
-5 1 10 114 114 114
-4 1 10 114 114 114
-3 1 10 114 114 114
2 1 10 114 114 114
3 1 10 114 114 114
4 1 10 114 114 114
5 1 10 114 114 114
6 1 10 114 114 114
-7 2 10 114 114 114
-6 2 10 114 114 114
-5 2 10 114 114 114
-4 2 10 114 114 114
-3 2 10 114 114 114
2 2 10 114 114 114
3 2 10 135 138 130
4 2 10 114 114 114
5 2 10 114 114 114
6 2 10 114 114 114
-7 3 10 114 114 114
-6 3 10 114 114 114
-5 3 10 114 114 114
-4 3 10 114 114 114
-3 3 10 114 114 114
2 3 10 114 114 114
3 3 10 114 114 114
4 3 10 114 114 114
5 3 10 114 114 114
6 3 10 114 114 114
-7 4 10 114 114 114
-6 4 10 86 86 86
-5 4 10 114 114 114
-4 4 10 114 114 114
-3 4 10 114 114 114
2 4 10 114 114 114
3 4 10 114 114 114
4 4 10 114 114 114
5 4 10 114 114 114
6 4 10 114 114 114
-7 0 11 114 114 114
-6 0 11 114 114 114
-5 0 11 114 114 114
-4 0 11 114 114 114
-3 0 11 114 114 114
2 0 11 135 138 130
3 0 11 135 138 130
4 0 11 114 114 114
5 0 11 114 114 114
6 0 11 135 138 130
-7 1 11 114 114 114
-3 1 11 114 114 114
2 1 11 135 138 130
6 1 11 135 138 130
-7 2 11 114 114 114
-5 2 11 151 112 58
-3 2 11 114 114 114
2 2 11 114 114 114
4 2 11 151 112 58
6 2 11 114 114 114
-7 3 11 114 114 114
-3 3 11 114 114 114
2 3 11 114 114 114
6 3 11 135 138 130
-7 4 11 114 114 114
-6 4 11 114 114 114
-5 4 11 114 114 114
-4 4 11 114 114 114
-3 4 11 114 114 114
2 4 11 135 138 130
3 4 11 135 138 130
4 4 11 114 114 114
5 4 11 114 114 114
6 4 11 135 138 130
-7 0 12 114 114 114
-5 0 12 135 138 130
-3 0 12 114 114 114
2 0 12 135 138 130
4 0 12 135 138 130
6 0 12 135 138 130
-7 2 12 135 138 130
-5 2 12 151 112 58
-3 2 12 135 138 130
2 2 12 135 138 130
4 2 12 151 112 58
-7 4 12 114 114 114
-5 4 12 135 138 130
-3 4 12 114 114 114
2 4 12 135 138 130
4 4 12 135 138 130
6 4 12 135 138 130
2 0 13 255 225 0
-5 2 13 198 147 70
4 2 13 198 147 70
-7 4 13 255 225 0
6 4 13 255 225 0
-5 2 14 198 147 70
4 2 14 198 147 70
-5 2 15 198 147 70
4 2 15 198 147 70
-3 3 15 76 181 223
-2 3 15 55 101 195
6 3 15 76 181 223
7 3 15 55 101 195
-5 2 16 198 147 70
-4 2 16 76 181 223
-3 2 16 55 101 195
4 2 16 198 147 70
5 2 16 76 181 223
6 2 16 55 101 195
-3 3 16 206 96 200
-2 3 16 134 60 157
6 3 16 206 96 200
7 3 16 134 60 157
-5 2 17 151 112 58
-4 2 17 206 96 200
-3 2 17 134 60 157
4 2 17 151 112 58
5 2 17 206 96 200
6 2 17 134 60 157
