ply
format ascii 1.0
comment : MagicaVoxel @ Ephtracy
element vertex 348
property float x
property float y
property float z
property uchar red
property uchar green
property uchar blue
end_header
-6 -8 0 83 136 90
-5 -8 0 83 136 90
-6 -7 0 83 136 90
-5 -7 0 99 156 96
-7 -6 0 99 156 96
-6 -6 0 83 136 90
-7 -5 0 83 136 90
-6 -5 0 99 156 96
-7 -4 0 83 136 90
-6 -4 0 99 156 96
-7 -3 0 83 136 90
-6 -3 0 99 156 96
-7 -2 0 99 156 96
-6 -2 0 83 136 90
-7 -1 0 83 136 90
-6 -1 0 99 156 96
-7 0 0 83 136 90
-6 0 0 125 201 98
-7 1 0 83 136 90
-6 1 0 99 156 96
-7 2 0 99 156 96
-6 2 0 83 136 90
-6 3 0 83 136 90
-5 3 0 99 156 96
-6 4 0 83 136 90
-5 4 0 99 156 96
-4 4 0 99 156 96
2 4 0 99 156 96
3 4 0 83 136 90
4 4 0 99 156 96
5 4 0 99 156 96
-5 5 0 83 136 90
-4 5 0 83 136 90
-3 5 0 83 136 90
-2 5 0 99 156 96
-1 5 0 83 136 90
0 5 0 99 156 96
1 5 0 83 136 90
5 5 0 83 136 90
6 5 0 83 136 90
7 5 0 83 136 90
-4 -8 1 83 136 90
-3 -8 1 99 156 96
-2 -8 1 99 156 96
-4 -7 1 83 136 90
-3 -7 1 83 136 90
-5 -6 1 83 136 90
-4 -6 1 99 156 96
-3 -6 1 99 156 96
-5 -5 1 125 201 98
-4 -5 1 99 156 96
-5 -4 1 83 136 90
-4 -4 1 99 156 96
-5 -3 1 83 136 90
-4 -3 1 99 156 96
-5 -2 1 83 136 90
-4 -2 1 99 156 96
-5 -1 1 83 136 90
-4 -1 1 125 201 98
-5 0 1 83 136 90
-4 0 1 99 156 96
-5 1 1 83 136 90
-4 1 1 83 136 90
-3 1 1 99 156 96
-5 2 1 83 136 90
-4 2 1 125 201 98
-3 2 1 99 156 96
-2 2 1 99 156 96
-6 3 1 206 96 200
-4 3 1 83 136 90
-3 3 1 83 136 90
-2 3 1 125 201 98
-1 3 1 99 156 96
0 3 1 99 156 96
2 3 1 125 201 98
3 3 1 125 201 98
4 3 1 99 156 96
5 3 1 83 136 90
6 3 1 83 136 90
-3 4 1 99 156 96
-2 4 1 83 136 90
-1 4 1 125 201 98
0 4 1 125 201 98
1 4 1 83 136 90
6 4 1 83 136 90
7 4 1 99 156 96
-5 5 1 134 60 157
6 5 1 134 60 157
-1 -8 2 99 156 96
0 -8 2 83 136 90
1 -8 2 99 156 96
2 -8 2 125 201 98
3 -8 2 197 200 189
4 -8 2 99 156 96
5 -8 2 197 200 189
6 -8 2 99 156 96
7 -8 2 99 156 96
-2 -7 2 83 136 90
-1 -7 2 99 156 96
0 -7 2 99 156 96
1 -7 2 99 156 96
2 -7 2 99 156 96
3 -7 2 197 200 189
4 -7 2 99 156 96
5 -7 2 197 200 189
6 -7 2 83 136 90
7 -7 2 99 156 96
-2 -6 2 125 201 98
-1 -6 2 83 136 90
0 -6 2 83 136 90
1 -6 2 99 156 96
2 -6 2 83 136 90
3 -6 2 197 200 189
4 -6 2 99 156 96
5 -6 2 197 200 189
6 -6 2 83 136 90
7 -6 2 83 136 90
-3 -5 2 125 201 98
-2 -5 2 83 136 90
-1 -5 2 99 156 96
0 -5 2 83 136 90
1 -5 2 99 156 96
2 -5 2 125 201 98
3 -5 2 197 200 189
4 -5 2 99 156 96
5 -5 2 197 200 189
6 -5 2 83 136 90
7 -5 2 99 156 96
-5 -4 2 217 203 181
-3 -4 2 83 136 90
-2 -4 2 83 136 90
-1 -4 2 83 136 90
0 -4 2 125 201 98
1 -4 2 99 156 96
2 -4 2 125 201 98
3 -4 2 197 200 189
4 -4 2 99 156 96
5 -4 2 197 200 189
6 -4 2 125 201 98
7 -4 2 83 136 90
-3 -3 2 83 136 90
-2 -3 2 99 156 96
-1 -3 2 83 136 90
0 -3 2 99 156 96
1 -3 2 99 156 96
2 -3 2 99 156 96
3 -3 2 197 200 189
4 -3 2 99 156 96
5 -3 2 197 200 189
6 -3 2 125 201 98
7 -3 2 83 136 90
-3 -2 2 125 201 98
-2 -2 2 83 136 90
-1 -2 2 99 156 96
0 -2 2 83 136 90
1 -2 2 99 156 96
2 -2 2 83 136 90
3 -2 2 197 200 189
4 -2 2 99 156 96
5 -2 2 197 200 189
6 -2 2 83 136 90
7 -2 2 83 136 90
-4 -1 2 80 58 33
-3 -1 2 83 136 90
-2 -1 2 83 136 90
-1 -1 2 125 201 98
0 -1 2 83 136 90
1 -1 2 99 156 96
2 -1 2 125 201 98
3 -1 2 197 200 189
4 -1 2 99 156 96
5 -1 2 197 200 189
6 -1 2 197 200 189
7 -1 2 197 200 189
-4 0 2 80 58 33
-3 0 2 125 201 98
-2 0 2 83 136 90
-1 0 2 83 136 90
0 0 2 99 156 96
1 0 2 125 201 98
2 0 2 125 201 98
3 0 2 197 200 189
4 0 2 99 156 96
5 0 2 99 156 96
6 0 2 99 156 96
7 0 2 99 156 96
-4 1 2 80 58 33
-3 1 2 125 201 98
-2 1 2 99 156 96
-1 1 2 83 136 90
0 1 2 83 136 90
1 1 2 125 201 98
2 1 2 99 156 96
3 1 2 197 200 189
4 1 2 197 200 189
5 1 2 197 200 189
6 1 2 197 200 189
7 1 2 197 200 189
-3 2 2 151 112 58
-2 2 2 80 58 33
-1 2 2 125 201 98
0 2 2 83 136 90
1 2 2 125 201 98
2 2 2 83 136 90
3 2 2 125 201 98
4 2 2 125 201 98
5 2 2 99 156 96
6 2 2 83 136 90
7 2 2 83 136 90
1 3 2 99 156 96
2 3 2 99 156 96
5 3 2 125 201 98
6 3 2 83 136 90
7 3 2 99 156 96
-1 4 2 76 181 223
-2 -6 3 217 203 181
2 -6 3 80 58 33
3 -6 3 135 138 130
6 -6 3 80 58 33
-5 -5 3 206 96 200
-6 -4 3 134 60 157
-5 -4 3 217 203 181
-4 -4 3 134 60 157
7 -4 3 99 156 96
-5 -3 3 206 96 200
7 -3 3 83 136 90
-3 -2 3 80 58 33
-2 -2 3 151 112 58
-1 -2 3 151 112 58
1 -2 3 135 138 130
2 -2 3 80 58 33
5 -2 3 135 138 130
6 -2 3 80 58 33
7 -2 3 83 136 90
-4 -1 3 80 58 33
-3 -1 3 54 54 54
-2 -1 3 54 54 54
-1 -1 3 135 138 130
-4 0 3 151 112 58
-3 0 3 54 54 54
-2 0 3 54 54 54
-1 0 3 54 54 54
0 0 3 54 54 54
-4 1 3 80 58 33
-3 1 3 54 54 54
-2 1 3 135 138 130
-1 1 3 135 138 130
-3 2 3 80 58 33
-2 2 3 151 112 58
-1 2 3 151 112 58
0 2 3 135 138 130
2 2 3 80 58 33
6 2 3 80 58 33
7 2 3 83 136 90
7 3 3 83 136 90
-2 -7 4 76 181 223
-3 -6 4 55 101 195
-2 -6 4 217 203 181
-1 -6 4 55 101 195
2 -6 4 151 112 58
6 -6 4 151 112 58
-2 -5 4 76 181 223
-5 -4 4 134 60 157
7 -3 4 99 156 96
-3 -2 4 151 112 58
-2 -2 4 151 112 58
2 -2 4 151 112 58
6 -2 4 151 112 58
7 -2 4 83 136 90
-4 -1 4 151 112 58
-3 -1 4 54 54 54
-4 0 4 151 112 58
-3 0 4 54 54 54
-2 0 4 135 138 130
-4 1 4 151 112 58
-3 2 4 151 112 58
2 2 4 151 112 58
6 2 4 151 112 58
7 2 4 83 136 90
7 3 4 83 136 90
-2 -6 5 76 181 223
2 -6 5 151 112 58
6 -6 5 151 112 58
2 -4 5 255 225 0
2 -2 5 151 112 58
6 -2 5 151 112 58
7 -2 5 83 136 90
-3 -1 5 135 138 130
2 0 5 255 225 0
2 2 5 151 112 58
6 2 5 151 112 58
7 2 5 83 136 90
7 3 5 83 136 90
2 -7 6 181 88 63
6 -7 6 181 88 63
2 -6 6 181 88 63
6 -6 6 136 65 46
2 -5 6 136 65 46
6 -5 6 181 88 63
2 -4 6 136 65 46
6 -4 6 181 88 63
2 -3 6 181 88 63
6 -3 6 136 65 46
2 -2 6 181 88 63
6 -2 6 181 88 63
7 -2 6 136 65 46
2 -1 6 136 65 46
2 0 6 136 65 46
2 1 6 181 88 63
2 2 6 181 88 63
3 2 6 136 65 46
4 2 6 136 65 46
5 2 6 181 88 63
6 2 6 136 65 46
7 2 6 136 65 46
3 -7 7 181 88 63
4 -7 7 136 65 46
5 -7 7 181 88 63
3 -6 7 181 88 63
4 -6 7 136 65 46
5 -6 7 181 88 63
3 -5 7 136 65 46
4 -5 7 136 65 46
5 -5 7 181 88 63
3 -4 7 181 88 63
4 -4 7 136 65 46
5 -4 7 136 65 46
3 -3 7 181 88 63
4 -3 7 136 65 46
5 -3 7 181 88 63
3 -2 7 136 65 46
4 -2 7 181 88 63
5 -2 7 136 65 46
3 -1 7 136 65 46
4 -1 7 181 88 63
5 -1 7 136 65 46
6 -1 7 136 65 46
7 -1 7 136 65 46
3 0 7 136 65 46
4 0 7 136 65 46
5 0 7 181 88 63
6 0 7 181 88 63
7 0 7 136 65 46
3 1 7 136 65 46
4 1 7 181 88 63
5 1 7 136 65 46
6 1 7 136 65 46
7 1 7 136 65 46
