ply
format ascii 1.0
comment : MagicaVoxel @ Ephtracy
element vertex 435
property float x
property float y
property float z
property uchar red
property uchar green
property uchar blue
end_header
-4 -6 0 217 203 181
1 -6 0 217 203 181
-4 -5 0 83 136 90
-3 -5 0 83 136 90
-2 -5 0 99 156 96
-1 -5 0 83 136 90
0 -5 0 83 136 90
1 -5 0 99 156 96
2 -5 0 99 156 96
3 -5 0 83 136 90
4 -5 0 83 136 90
-6 -4 0 76 181 223
-5 -4 0 83 136 90
-4 -4 0 83 136 90
-3 -4 0 80 58 33
-2 -4 0 99 156 96
-1 -4 0 80 58 33
0 -4 0 125 201 98
1 -4 0 80 58 33
2 -4 0 99 156 96
3 -4 0 99 156 96
4 -4 0 99 156 96
5 -4 0 83 136 90
6 -4 0 83 136 90
-5 -3 0 83 136 90
-4 -3 0 80 58 33
-3 -3 0 197 200 189
-2 -3 0 197 200 189
-1 -3 0 197 200 189
0 -3 0 197 200 189
1 -3 0 197 200 189
2 -3 0 197 200 189
3 -3 0 197 200 189
4 -3 0 197 200 189
5 -3 0 99 156 96
6 -3 0 83 136 90
7 -3 0 83 136 90
-7 -2 0 134 60 157
-6 -2 0 83 136 90
-5 -2 0 83 136 90
-4 -2 0 80 58 33
-3 -2 0 197 200 189
-2 -2 0 80 58 33
5 -2 0 125 201 98
6 -2 0 99 156 96
7 -2 0 83 136 90
-6 -1 0 83 136 90
-5 -1 0 83 136 90
-4 -1 0 80 58 33
-3 -1 0 197 200 189
-2 -1 0 80 58 33
3 -1 0 83 136 90
5 -1 0 83 136 90
6 -1 0 99 156 96
7 -1 0 83 136 90
-7 0 0 83 136 90
-6 0 0 83 136 90
-5 0 0 83 136 90
-4 0 0 80 58 33
-3 0 0 197 200 189
-2 0 0 80 58 33
3 0 0 83 136 90
4 0 0 83 136 90
5 0 0 83 136 90
6 0 0 83 136 90
7 0 0 83 136 90
-7 1 0 83 136 90
-7 2 0 83 136 90
-7 3 0 83 136 90
-7 4 0 83 136 90
2 4 0 99 156 96
3 4 0 83 136 90
4 4 0 83 136 90
5 4 0 83 136 90
6 4 0 99 156 96
7 4 0 83 136 90
-7 5 0 83 136 90
1 5 0 99 156 96
2 5 0 99 156 96
3 5 0 99 156 96
4 5 0 99 156 96
5 5 0 99 156 96
6 5 0 83 136 90
-6 6 0 83 136 90
-5 6 0 83 136 90
-4 6 0 83 136 90
-3 6 0 83 136 90
-2 6 0 83 136 90
-1 6 0 83 136 90
0 6 0 83 136 90
1 6 0 83 136 90
2 6 0 83 136 90
3 6 0 83 136 90
4 6 0 83 136 90
-4 -7 1 134 60 157
1 -7 1 76 181 223
-5 -6 1 134 60 157
-4 -6 1 217 203 181
-3 -6 1 134 60 157
0 -6 1 55 101 195
1 -6 1 217 203 181
2 -6 1 55 101 195
-4 -5 1 206 96 200
1 -5 1 76 181 223
-4 -4 1 151 112 58
-2 -4 1 151 112 58
0 -4 1 151 112 58
2 -4 1 151 112 58
3 -3 1 135 138 130
-5 -2 1 99 156 96
-4 -2 1 151 112 58
-2 -2 1 151 112 58
-1 -2 1 125 201 98
0 -2 1 125 201 98
1 -2 1 83 136 90
2 -2 1 86 86 86
3 -2 1 86 86 86
4 -2 1 86 86 86
5 -2 1 206 96 200
-6 -1 1 99 156 96
-5 -1 1 125 201 98
2 -1 1 83 136 90
4 -1 1 86 86 86
6 -1 1 151 112 58
-6 0 1 99 156 96
-5 0 1 125 201 98
-4 0 1 151 112 58
-2 0 1 151 112 58
2 0 1 99 156 96
-7 1 1 83 136 90
-3 1 1 54 54 54
2 1 1 125 201 98
3 1 1 99 156 96
4 1 1 86 86 86
5 1 1 86 86 86
6 1 1 86 86 86
7 1 1 114 114 114
-7 2 1 83 136 90
1 2 1 86 86 86
2 2 1 125 201 98
3 2 1 99 156 96
4 2 1 86 86 86
7 2 1 86 86 86
-7 3 1 83 136 90
2 3 1 99 156 96
3 3 1 99 156 96
4 3 1 86 86 86
7 3 1 86 86 86
-7 4 1 99 156 96
1 4 1 99 156 96
2 4 1 86 86 86
3 4 1 86 86 86
4 4 1 86 86 86
5 4 1 83 136 90
6 4 1 86 86 86
7 4 1 114 114 114
-6 5 1 125 201 98
-5 5 1 125 201 98
-1 5 1 125 201 98
0 5 1 99 156 96
5 5 1 76 181 223
-4 6 1 99 156 96
-3 6 1 99 156 96
-2 6 1 99 156 96
0 6 1 217 203 181
3 6 1 55 101 195
-4 -6 2 206 96 200
1 -6 2 55 101 195
-4 -4 2 151 112 58
-2 -4 2 151 112 58
0 -4 2 151 112 58
2 -4 2 151 112 58
-4 -2 2 151 112 58
-2 -2 2 151 112 58
-1 -2 2 255 225 0
0 -2 2 86 86 86
1 -2 2 86 86 86
2 -2 2 114 114 114
3 -2 2 86 86 86
4 -2 2 86 86 86
-5 -1 2 99 156 96
1 -1 2 86 86 86
4 -1 2 86 86 86
6 -1 2 255 225 0
-6 0 2 125 201 98
-5 0 2 125 201 98
-4 0 2 151 112 58
-2 0 2 151 112 58
1 0 2 86 86 86
-7 1 2 206 96 200
-6 1 2 99 156 96
-3 1 2 54 54 54
1 1 2 86 86 86
4 1 2 86 86 86
5 1 2 86 86 86
6 1 2 86 86 86
7 1 2 114 114 114
-6 2 2 99 156 96
0 2 2 54 54 54
5 2 2 255 123 0
6 2 2 255 123 0
-6 3 2 83 136 90
1 3 2 86 86 86
5 3 2 255 123 0
6 3 2 255 123 0
-6 4 2 83 136 90
-1 4 2 99 156 96
0 4 2 86 86 86
1 4 2 86 86 86
2 4 2 86 86 86
3 4 2 86 86 86
4 4 2 86 86 86
5 4 2 114 114 114
6 4 2 114 114 114
7 4 2 114 114 114
-5 5 2 83 136 90
-4 5 2 99 156 96
-3 5 2 83 136 90
-2 5 2 83 136 90
0 6 2 76 181 223
-4 -4 3 136 65 46
-3 -4 3 136 65 46
-2 -4 3 181 88 63
-1 -4 3 181 88 63
0 -4 3 136 65 46
1 -4 3 136 65 46
2 -4 3 181 88 63
3 -4 3 136 65 46
-4 -3 3 136 65 46
-4 -2 3 136 65 46
-2 -2 3 181 88 63
-1 -2 3 86 86 86
0 -2 3 86 86 86
1 -2 3 114 114 114
2 -2 3 114 114 114
3 -2 3 114 114 114
4 -2 3 114 114 114
-5 -1 3 99 156 96
-4 -1 3 136 65 46
-2 -1 3 136 65 46
1 -1 3 86 86 86
4 -1 3 114 114 114
-5 0 3 99 156 96
-4 0 3 136 65 46
-2 0 3 136 65 46
1 0 3 86 86 86
4 0 3 114 114 114
-6 1 3 99 156 96
-5 1 3 125 201 98
-3 1 3 54 54 54
1 1 3 86 86 86
4 1 3 114 114 114
5 1 3 86 86 86
6 1 3 114 114 114
7 1 3 114 114 114
-6 2 3 125 201 98
-5 2 3 99 156 96
0 2 3 54 54 54
5 2 3 255 123 0
6 2 3 255 123 0
-6 3 3 55 101 195
-5 3 3 99 156 96
1 3 3 86 86 86
5 3 3 255 123 0
6 3 3 255 123 0
-5 4 3 125 201 98
-4 4 3 99 156 96
-3 4 3 125 201 98
-2 4 3 125 201 98
-1 4 3 86 86 86
0 4 3 86 86 86
1 4 3 86 86 86
2 4 3 114 114 114
3 4 3 114 114 114
4 4 3 114 114 114
5 4 3 114 114 114
6 4 3 114 114 114
7 4 3 114 114 114
-4 5 3 206 96 200
-3 5 3 125 201 98
-3 -3 4 136 65 46
-2 -3 4 181 88 63
-1 -3 4 136 65 46
0 -3 4 136 65 46
1 -3 4 181 88 63
2 -3 4 136 65 46
3 -3 4 136 65 46
-3 -2 4 181 88 63
-2 -2 4 86 86 86
-1 -2 4 86 86 86
0 -2 4 114 114 114
1 -2 4 114 114 114
2 -2 4 135 138 130
4 -2 4 135 138 130
-4 -1 4 125 201 98
-3 -1 4 136 65 46
-2 -1 4 125 201 98
-1 -1 4 114 114 114
0 -1 4 114 114 114
1 -1 4 114 114 114
-5 0 4 99 156 96
-4 0 4 99 156 96
-3 0 4 136 65 46
-2 0 4 99 156 96
-1 0 4 114 114 114
0 0 4 135 138 130
1 0 4 114 114 114
4 0 4 135 138 130
-5 1 4 125 201 98
-1 1 4 114 114 114
0 1 4 86 86 86
1 1 4 114 114 114
5 1 4 114 114 114
6 1 4 114 114 114
-5 2 4 76 181 223
1 2 4 86 86 86
4 2 4 114 114 114
7 2 4 114 114 114
-4 3 4 99 156 96
-3 3 4 99 156 96
-2 3 4 99 156 96
1 3 4 114 114 114
4 3 4 114 114 114
7 3 4 114 114 114
-5 4 4 217 203 181
-3 4 4 99 156 96
-2 4 4 86 86 86
-1 4 4 86 86 86
0 4 4 114 114 114
1 4 4 114 114 114
2 4 4 135 138 130
4 4 4 135 138 130
5 4 4 114 114 114
6 4 4 114 114 114
-2 -2 5 114 114 114
-1 -2 5 135 138 130
0 -2 5 114 114 114
1 -2 5 114 114 114
-2 -1 5 114 114 114
1 -1 5 114 114 114
-3 0 5 125 201 98
-2 0 5 114 114 114
1 0 5 114 114 114
-4 1 5 125 201 98
-3 1 5 99 156 96
-2 1 5 114 114 114
-1 1 5 86 86 86
1 1 5 114 114 114
5 1 5 114 114 114
-4 2 5 99 156 96
-3 2 5 125 201 98
-2 2 5 135 138 130
0 2 5 54 54 54
1 2 5 114 114 114
4 2 5 114 114 114
5 2 5 255 123 0
6 2 5 114 114 114
-5 3 5 55 101 195
-2 3 5 86 86 86
1 3 5 114 114 114
4 3 5 114 114 114
5 3 5 255 123 0
6 3 5 114 114 114
-6 4 5 76 181 223
-5 4 5 217 203 181
-4 4 5 55 101 195
-2 4 5 86 86 86
-1 4 5 114 114 114
0 4 5 114 114 114
1 4 5 114 114 114
5 4 5 114 114 114
-5 5 5 55 101 195
-2 -2 6 135 138 130
1 -2 6 135 138 130
-2 0 6 135 138 130
1 0 6 135 138 130
-2 1 6 114 114 114
-1 1 6 114 114 114
1 1 6 114 114 114
5 1 6 114 114 114
-2 2 6 114 114 114
0 2 6 54 54 54
1 2 6 114 114 114
4 2 6 114 114 114
6 2 6 135 138 130
-2 3 6 86 86 86
1 3 6 114 114 114
4 3 6 135 138 130
6 3 6 114 114 114
-5 4 6 76 181 223
-2 4 6 114 114 114
-1 4 6 114 114 114
0 4 6 114 114 114
1 4 6 114 114 114
5 4 6 114 114 114
-2 -2 7 255 225 0
-2 1 7 114 114 114
-1 1 7 114 114 114
0 1 7 114 114 114
1 1 7 114 114 114
5 1 7 135 138 130
-2 2 7 114 114 114
-1 2 7 114 114 114
0 2 7 135 138 130
1 2 7 114 114 114
4 2 7 135 138 130
6 2 7 114 114 114
-2 3 7 114 114 114
-1 3 7 114 114 114
0 3 7 114 114 114
1 3 7 114 114 114
4 3 7 135 138 130
6 3 7 135 138 130
-2 4 7 114 114 114
-1 4 7 114 114 114
0 4 7 114 114 114
1 4 7 114 114 114
5 4 7 135 138 130
-2 1 8 135 138 130
-1 1 8 114 114 114
0 1 8 114 114 114
1 1 8 135 138 130
-2 2 8 135 138 130
1 2 8 135 138 130
-2 3 8 114 114 114
1 3 8 114 114 114
-2 4 8 135 138 130
-1 4 8 135 138 130
0 4 8 114 114 114
1 4 8 135 138 130
-2 1 9 135 138 130
1 1 9 135 138 130
-2 4 9 135 138 130
1 4 9 135 138 130
-2 4 10 255 225 0
