ply
format ascii 1.0
comment : MagicaVoxel @ Ephtracy
element vertex 435
property float x
property float y
property float z
property uchar red
property uchar green
property uchar blue
end_header
-12 -6 0 217 203 181
-7 -6 0 217 203 181
-12 -5 0 83 136 90
-11 -5 0 83 136 90
-10 -5 0 99 156 96
-9 -5 0 83 136 90
-8 -5 0 83 136 90
-7 -5 0 99 156 96
-6 -5 0 99 156 96
-5 -5 0 83 136 90
-4 -5 0 83 136 90
-14 -4 0 76 181 223
-13 -4 0 83 136 90
-12 -4 0 83 136 90
-11 -4 0 80 58 33
-10 -4 0 99 156 96
-9 -4 0 80 58 33
-8 -4 0 125 201 98
-7 -4 0 80 58 33
-6 -4 0 99 156 96
-5 -4 0 99 156 96
-4 -4 0 99 156 96
-3 -4 0 83 136 90
-2 -4 0 83 136 90
-13 -3 0 83 136 90
-12 -3 0 80 58 33
-11 -3 0 197 200 189
-10 -3 0 197 200 189
-9 -3 0 197 200 189
-8 -3 0 197 200 189
-7 -3 0 197 200 189
-6 -3 0 197 200 189
-5 -3 0 197 200 189
-4 -3 0 197 200 189
-3 -3 0 99 156 96
-2 -3 0 83 136 90
-1 -3 0 83 136 90
-15 -2 0 134 60 157
-14 -2 0 83 136 90
-13 -2 0 83 136 90
-12 -2 0 80 58 33
-11 -2 0 197 200 189
-10 -2 0 80 58 33
-3 -2 0 125 201 98
-2 -2 0 99 156 96
-1 -2 0 83 136 90
-14 -1 0 83 136 90
-13 -1 0 83 136 90
-12 -1 0 80 58 33
-11 -1 0 197 200 189
-10 -1 0 80 58 33
-5 -1 0 83 136 90
-3 -1 0 83 136 90
-2 -1 0 99 156 96
-1 -1 0 83 136 90
-15 0 0 83 136 90
-14 0 0 83 136 90
-13 0 0 83 136 90
-12 0 0 80 58 33
-11 0 0 197 200 189
-10 0 0 80 58 33
-5 0 0 83 136 90
-4 0 0 83 136 90
-3 0 0 83 136 90
-2 0 0 83 136 90
-1 0 0 83 136 90
-15 1 0 83 136 90
-15 2 0 83 136 90
-15 3 0 83 136 90
-15 4 0 83 136 90
-6 4 0 99 156 96
-5 4 0 83 136 90
-4 4 0 83 136 90
-3 4 0 83 136 90
-2 4 0 99 156 96
-1 4 0 83 136 90
-15 5 0 83 136 90
-7 5 0 99 156 96
-6 5 0 99 156 96
-5 5 0 99 156 96
-4 5 0 99 156 96
-3 5 0 99 156 96
-2 5 0 83 136 90
-14 6 0 83 136 90
-13 6 0 83 136 90
-12 6 0 83 136 90
-11 6 0 83 136 90
-10 6 0 83 136 90
-9 6 0 83 136 90
-8 6 0 83 136 90
-7 6 0 83 136 90
-6 6 0 83 136 90
-5 6 0 83 136 90
-4 6 0 83 136 90
-12 -7 1 134 60 157
-7 -7 1 76 181 223
-13 -6 1 134 60 157
-12 -6 1 217 203 181
-11 -6 1 134 60 157
-8 -6 1 55 101 195
-7 -6 1 217 203 181
-6 -6 1 55 101 195
-12 -5 1 206 96 200
-7 -5 1 76 181 223
-12 -4 1 151 112 58
-10 -4 1 151 112 58
-8 -4 1 151 112 58
-6 -4 1 151 112 58
-5 -3 1 135 138 130
-13 -2 1 99 156 96
-12 -2 1 151 112 58
-10 -2 1 151 112 58
-9 -2 1 125 201 98
-8 -2 1 125 201 98
-7 -2 1 83 136 90
-6 -2 1 86 86 86
-5 -2 1 86 86 86
-4 -2 1 86 86 86
-3 -2 1 206 96 200
-14 -1 1 99 156 96
-13 -1 1 125 201 98
-6 -1 1 83 136 90
-4 -1 1 86 86 86
-2 -1 1 151 112 58
-14 0 1 99 156 96
-13 0 1 125 201 98
-12 0 1 151 112 58
-10 0 1 151 112 58
-6 0 1 99 156 96
-15 1 1 83 136 90
-11 1 1 54 54 54
-6 1 1 125 201 98
-5 1 1 99 156 96
-4 1 1 86 86 86
-3 1 1 86 86 86
-2 1 1 86 86 86
-1 1 1 114 114 114
-15 2 1 83 136 90
-7 2 1 86 86 86
-6 2 1 125 201 98
-5 2 1 99 156 96
-4 2 1 86 86 86
-1 2 1 86 86 86
-15 3 1 83 136 90
-6 3 1 99 156 96
-5 3 1 99 156 96
-4 3 1 86 86 86
-1 3 1 86 86 86
-15 4 1 99 156 96
-7 4 1 99 156 96
-6 4 1 86 86 86
-5 4 1 86 86 86
-4 4 1 86 86 86
-3 4 1 83 136 90
-2 4 1 86 86 86
-1 4 1 114 114 114
-14 5 1 125 201 98
-13 5 1 125 201 98
-9 5 1 125 201 98
-8 5 1 99 156 96
-3 5 1 76 181 223
-12 6 1 99 156 96
-11 6 1 99 156 96
-10 6 1 99 156 96
-8 6 1 217 203 181
-5 6 1 55 101 195
-12 -6 2 206 96 200
-7 -6 2 55 101 195
-12 -4 2 151 112 58
-10 -4 2 151 112 58
-8 -4 2 151 112 58
-6 -4 2 151 112 58
-12 -2 2 151 112 58
-10 -2 2 151 112 58
-9 -2 2 255 225 0
-8 -2 2 86 86 86
-7 -2 2 86 86 86
-6 -2 2 114 114 114
-5 -2 2 86 86 86
-4 -2 2 86 86 86
-13 -1 2 99 156 96
-7 -1 2 86 86 86
-4 -1 2 86 86 86
-2 -1 2 255 225 0
-14 0 2 125 201 98
-13 0 2 125 201 98
-12 0 2 151 112 58
-10 0 2 151 112 58
-7 0 2 86 86 86
-15 1 2 206 96 200
-14 1 2 99 156 96
-11 1 2 54 54 54
-7 1 2 86 86 86
-4 1 2 86 86 86
-3 1 2 86 86 86
-2 1 2 86 86 86
-1 1 2 114 114 114
-14 2 2 99 156 96
-8 2 2 54 54 54
-3 2 2 255 123 0
-2 2 2 255 123 0
-14 3 2 83 136 90
-7 3 2 86 86 86
-3 3 2 255 123 0
-2 3 2 255 123 0
-14 4 2 83 136 90
-9 4 2 99 156 96
-8 4 2 86 86 86
-7 4 2 86 86 86
-6 4 2 86 86 86
-5 4 2 86 86 86
-4 4 2 86 86 86
-3 4 2 114 114 114
-2 4 2 114 114 114
-1 4 2 114 114 114
-13 5 2 83 136 90
-12 5 2 99 156 96
-11 5 2 83 136 90
-10 5 2 83 136 90
-8 6 2 76 181 223
-12 -4 3 136 65 46
-11 -4 3 136 65 46
-10 -4 3 181 88 63
-9 -4 3 181 88 63
-8 -4 3 136 65 46
-7 -4 3 136 65 46
-6 -4 3 181 88 63
-5 -4 3 136 65 46
-12 -3 3 136 65 46
-12 -2 3 136 65 46
-10 -2 3 181 88 63
-9 -2 3 86 86 86
-8 -2 3 86 86 86
-7 -2 3 114 114 114
-6 -2 3 114 114 114
-5 -2 3 114 114 114
-4 -2 3 114 114 114
-13 -1 3 99 156 96
-12 -1 3 136 65 46
-10 -1 3 136 65 46
-7 -1 3 86 86 86
-4 -1 3 114 114 114
-13 0 3 99 156 96
-12 0 3 136 65 46
-10 0 3 136 65 46
-7 0 3 86 86 86
-4 0 3 114 114 114
-14 1 3 99 156 96
-13 1 3 125 201 98
-11 1 3 54 54 54
-7 1 3 86 86 86
-4 1 3 114 114 114
-3 1 3 86 86 86
-2 1 3 114 114 114
-1 1 3 114 114 114
-14 2 3 125 201 98
-13 2 3 99 156 96
-8 2 3 54 54 54
-3 2 3 255 123 0
-2 2 3 255 123 0
-14 3 3 55 101 195
-13 3 3 99 156 96
-7 3 3 86 86 86
-3 3 3 255 123 0
-2 3 3 255 123 0
-13 4 3 125 201 98
-12 4 3 99 156 96
-11 4 3 125 201 98
-10 4 3 125 201 98
-9 4 3 86 86 86
-8 4 3 86 86 86
-7 4 3 86 86 86
-6 4 3 114 114 114
-5 4 3 114 114 114
-4 4 3 114 114 114
-3 4 3 114 114 114
-2 4 3 114 114 114
-1 4 3 114 114 114
-12 5 3 206 96 200
-11 5 3 125 201 98
-11 -3 4 136 65 46
-10 -3 4 181 88 63
-9 -3 4 136 65 46
-8 -3 4 136 65 46
-7 -3 4 181 88 63
-6 -3 4 136 65 46
-5 -3 4 136 65 46
-11 -2 4 181 88 63
-10 -2 4 86 86 86
-9 -2 4 86 86 86
-8 -2 4 114 114 114
-7 -2 4 114 114 114
-6 -2 4 135 138 130
-4 -2 4 135 138 130
-12 -1 4 125 201 98
-11 -1 4 136 65 46
-10 -1 4 125 201 98
-9 -1 4 114 114 114
-8 -1 4 114 114 114
-7 -1 4 114 114 114
-13 0 4 99 156 96
-12 0 4 99 156 96
-11 0 4 136 65 46
-10 0 4 99 156 96
-9 0 4 114 114 114
-8 0 4 135 138 130
-7 0 4 114 114 114
-4 0 4 135 138 130
-13 1 4 125 201 98
-9 1 4 114 114 114
-8 1 4 86 86 86
-7 1 4 114 114 114
-3 1 4 114 114 114
-2 1 4 114 114 114
-13 2 4 76 181 223
-7 2 4 86 86 86
-4 2 4 114 114 114
-1 2 4 114 114 114
-12 3 4 99 156 96
-11 3 4 99 156 96
-10 3 4 99 156 96
-7 3 4 114 114 114
-4 3 4 114 114 114
-1 3 4 114 114 114
-13 4 4 217 203 181
-11 4 4 99 156 96
-10 4 4 86 86 86
-9 4 4 86 86 86
-8 4 4 114 114 114
-7 4 4 114 114 114
-6 4 4 135 138 130
-4 4 4 135 138 130
-3 4 4 114 114 114
-2 4 4 114 114 114
-10 -2 5 114 114 114
-9 -2 5 135 138 130
-8 -2 5 114 114 114
-7 -2 5 114 114 114
-10 -1 5 114 114 114
-7 -1 5 114 114 114
-11 0 5 125 201 98
-10 0 5 114 114 114
-7 0 5 114 114 114
-12 1 5 125 201 98
-11 1 5 99 156 96
-10 1 5 114 114 114
-9 1 5 86 86 86
-7 1 5 114 114 114
-3 1 5 114 114 114
-12 2 5 99 156 96
-11 2 5 125 201 98
-10 2 5 135 138 130
-8 2 5 54 54 54
-7 2 5 114 114 114
-4 2 5 114 114 114
-3 2 5 255 123 0
-2 2 5 114 114 114
-13 3 5 55 101 195
-10 3 5 86 86 86
-7 3 5 114 114 114
-4 3 5 114 114 114
-3 3 5 255 123 0
-2 3 5 114 114 114
-14 4 5 76 181 223
-13 4 5 217 203 181
-12 4 5 55 101 195
-10 4 5 86 86 86
-9 4 5 114 114 114
-8 4 5 114 114 114
-7 4 5 114 114 114
-3 4 5 114 114 114
-13 5 5 55 101 195
-10 -2 6 135 138 130
-7 -2 6 135 138 130
-10 0 6 135 138 130
-7 0 6 135 138 130
-10 1 6 114 114 114
-9 1 6 114 114 114
-7 1 6 114 114 114
-3 1 6 114 114 114
-10 2 6 114 114 114
-8 2 6 54 54 54
-7 2 6 114 114 114
-4 2 6 114 114 114
-2 2 6 135 138 130
-10 3 6 86 86 86
-7 3 6 114 114 114
-4 3 6 135 138 130
-2 3 6 114 114 114
-13 4 6 76 181 223
-10 4 6 114 114 114
-9 4 6 114 114 114
-8 4 6 114 114 114
-7 4 6 114 114 114
-3 4 6 114 114 114
-10 -2 7 255 225 0
-10 1 7 114 114 114
-9 1 7 114 114 114
-8 1 7 114 114 114
-7 1 7 114 114 114
-3 1 7 135 138 130
-10 2 7 114 114 114
-9 2 7 114 114 114
-8 2 7 135 138 130
-7 2 7 114 114 114
-4 2 7 135 138 130
-2 2 7 114 114 114
-10 3 7 114 114 114
-9 3 7 114 114 114
-8 3 7 114 114 114
-7 3 7 114 114 114
-4 3 7 135 138 130
-2 3 7 135 138 130
-10 4 7 114 114 114
-9 4 7 114 114 114
-8 4 7 114 114 114
-7 4 7 114 114 114
-3 4 7 135 138 130
-10 1 8 135 138 130
-9 1 8 114 114 114
-8 1 8 114 114 114
-7 1 8 135 138 130
-10 2 8 135 138 130
-7 2 8 135 138 130
-10 3 8 114 114 114
-7 3 8 114 114 114
-10 4 8 135 138 130
-9 4 8 135 138 130
-8 4 8 114 114 114
-7 4 8 135 138 130
-10 1 9 135 138 130
-7 1 9 135 138 130
-10 4 9 135 138 130
-7 4 9 135 138 130
-10 4 10 255 225 0
