ply
format ascii 1.0
comment : MagicaVoxel @ Ephtracy
element vertex 279
property float x
property float y
property float z
property uchar red
property uchar green
property uchar blue
end_header
-5 -7 0 76 181 223
-3 -7 0 206 96 200
5 -7 0 76 181 223
-6 -6 0 57 38 19
-3 -6 0 57 38 19
-2 -6 0 134 60 157
0 -6 0 57 38 19
3 -6 0 57 38 19
-5 -5 0 197 200 189
-4 -5 0 228 231 218
1 -5 0 135 138 130
2 -5 0 135 138 130
6 -5 0 206 96 200
-5 -4 0 197 200 189
-4 -4 0 197 200 189
0 -4 0 57 38 19
1 -4 0 197 200 189
2 -4 0 197 200 189
-8 -3 0 83 136 90
-6 -3 0 57 38 19
-5 -3 0 197 200 189
-4 -3 0 197 200 189
-3 -3 0 57 38 19
0 -3 0 57 38 19
1 -3 0 135 138 130
2 -3 0 135 138 130
3 -3 0 57 38 19
-8 -2 0 83 136 90
-7 -2 0 83 136 90
4 -2 0 134 60 157
-8 -1 0 83 136 90
-7 -1 0 83 136 90
-6 -1 0 83 136 90
-8 0 0 83 136 90
-7 0 0 99 156 96
-6 0 0 83 136 90
6 0 0 55 101 195
-8 1 0 83 136 90
-7 1 0 99 156 96
-6 1 0 83 136 90
-2 1 0 55 101 195
2 1 0 54 54 54
3 1 0 86 86 86
4 1 0 86 86 86
5 1 0 54 54 54
-8 2 0 83 136 90
-7 2 0 83 136 90
-6 2 0 83 136 90
2 2 0 54 54 54
3 2 0 86 86 86
4 2 0 86 86 86
5 2 0 54 54 54
-8 3 0 83 136 90
-7 3 0 83 136 90
-8 4 0 83 136 90
0 4 0 206 96 200
2 4 0 54 54 54
3 4 0 86 86 86
4 4 0 86 86 86
5 4 0 54 54 54
-6 5 0 217 203 181
-3 5 0 76 181 223
2 5 0 54 54 54
3 5 0 86 86 86
4 5 0 86 86 86
5 5 0 54 54 54
-2 6 0 217 203 181
-6 -6 1 80 58 33
-5 -6 1 197 200 189
-4 -6 1 228 231 218
-3 -6 1 80 58 33
0 -6 1 80 58 33
1 -6 1 197 200 189
3 -6 1 80 58 33
-5 -5 1 197 200 189
-4 -5 1 197 200 189
1 -5 1 135 138 130
2 -5 1 197 200 189
-5 -4 1 228 231 218
-4 -4 1 228 231 218
1 -4 1 135 138 130
2 -4 1 135 138 130
-6 -3 1 80 58 33
-3 -3 1 80 58 33
0 -3 1 80 58 33
2 -3 1 135 138 130
3 -3 1 80 58 33
-6 1 1 55 101 195
2 1 1 135 138 130
3 1 1 86 86 86
4 1 1 86 86 86
5 1 1 54 54 54
-8 2 1 86 86 86
-7 2 1 86 86 86
-6 2 1 86 86 86
-5 2 1 86 86 86
2 2 1 86 86 86
3 2 1 86 86 86
4 2 1 86 86 86
5 2 1 54 54 54
-8 3 1 86 86 86
-7 3 1 86 86 86
-6 3 1 86 86 86
-5 3 1 86 86 86
2 4 1 135 138 130
3 4 1 86 86 86
4 4 1 86 86 86
5 4 1 54 54 54
-6 5 1 76 181 223
2 5 1 86 86 86
3 5 1 86 86 86
4 5 1 86 86 86
5 5 1 54 54 54
-2 6 1 134 60 157
-6 -6 2 80 58 33
-3 -6 2 80 58 33
0 -6 2 80 58 33
2 -6 2 197 200 189
3 -6 2 80 58 33
-5 -5 2 228 231 218
-4 -5 2 197 200 189
2 -5 2 135 138 130
-5 -4 2 197 200 189
-4 -4 2 228 231 218
2 -4 2 135 138 130
-6 -3 2 80 58 33
-5 -3 2 228 231 218
-4 -3 2 197 200 189
-3 -3 2 80 58 33
0 -3 2 80 58 33
3 -3 2 80 58 33
2 1 2 135 138 130
3 1 2 135 138 130
2 2 2 135 138 130
3 2 2 86 86 86
-7 3 2 135 138 130
-6 3 2 197 200 189
-5 3 2 135 138 130
2 4 2 135 138 130
3 4 2 86 86 86
2 5 2 86 86 86
3 5 2 135 138 130
2 1 3 135 138 130
3 1 3 86 86 86
2 2 3 135 138 130
3 2 3 135 138 130
2 3 3 135 138 130
3 3 3 135 138 130
-6 4 3 54 54 54
-5 4 3 54 54 54
-2 4 3 54 54 54
2 4 3 135 138 130
3 4 3 135 138 130
-4 5 3 54 54 54
2 5 3 135 138 130
3 5 3 86 86 86
-1 -6 4 54 54 54
1 -6 4 54 54 54
-1 -5 4 54 54 54
1 -5 4 54 54 54
-2 -4 4 54 54 54
-1 -4 4 86 86 86
0 -4 4 54 54 54
1 -4 4 86 86 86
-1 -3 4 54 54 54
0 -3 4 86 86 86
1 -3 4 54 54 54
2 2 4 197 200 189
3 2 4 86 86 86
2 3 4 135 138 130
3 3 4 135 138 130
-5 4 4 54 54 54
-4 4 4 86 86 86
-2 4 4 54 54 54
-1 4 4 54 54 54
0 4 4 135 138 130
2 4 4 135 138 130
3 4 4 86 86 86
-3 5 4 54 54 54
-2 5 4 54 54 54
-1 5 4 54 54 54
0 5 4 135 138 130
1 -3 5 135 138 130
2 -3 5 54 54 54
0 -2 5 86 86 86
1 -2 5 86 86 86
2 -2 5 135 138 130
1 -1 5 54 54 54
2 -1 5 54 54 54
2 2 5 197 200 189
3 2 5 135 138 130
2 3 5 197 200 189
3 3 5 197 200 189
-1 4 5 54 54 54
0 4 5 135 138 130
1 4 5 135 138 130
2 4 5 86 86 86
3 4 5 135 138 130
-1 5 5 135 138 130
0 5 5 86 86 86
1 5 5 135 138 130
2 -2 6 135 138 130
1 -1 6 86 86 86
2 -1 6 54 54 54
1 0 6 135 138 130
2 0 6 135 138 130
1 1 6 135 138 130
2 1 6 135 138 130
1 2 6 197 200 189
2 2 6 197 200 189
1 3 6 228 231 218
2 3 6 197 200 189
3 3 6 228 231 218
0 4 6 135 138 130
1 4 6 197 200 189
2 4 6 86 86 86
0 5 6 86 86 86
1 5 6 197 200 189
1 0 7 228 231 218
2 0 7 86 86 86
0 1 7 135 138 130
1 1 7 197 200 189
2 1 7 197 200 189
0 2 7 228 231 218
1 2 7 197 200 189
2 2 7 197 200 189
0 3 7 135 138 130
1 3 7 197 200 189
2 3 7 197 200 189
0 4 7 228 231 218
1 4 7 197 200 189
2 4 7 197 200 189
0 5 7 135 138 130
1 5 7 86 86 86
-1 2 8 197 200 189
0 2 8 197 200 189
1 2 8 228 231 218
2 2 8 197 200 189
-1 3 8 197 200 189
0 3 8 197 200 189
1 3 8 197 200 189
2 3 8 197 200 189
-1 4 8 197 200 189
0 4 8 197 200 189
1 4 8 228 231 218
2 4 8 228 231 218
-2 2 9 255 225 0
-1 2 9 228 231 218
0 2 9 197 200 189
1 2 9 197 200 189
-2 3 9 228 231 218
-1 3 9 197 200 189
0 3 9 197 200 189
1 3 9 197 200 189
2 3 9 228 231 218
-2 4 9 255 225 0
-1 4 9 228 231 218
0 4 9 197 200 189
1 4 9 197 200 189
-2 2 10 197 200 189
-1 2 10 197 200 189
0 2 10 197 200 189
1 2 10 228 231 218
-2 3 10 197 200 189
-1 3 10 197 200 189
0 3 10 197 200 189
1 3 10 197 200 189
-2 4 10 197 200 189
-1 4 10 197 200 189
0 4 10 228 231 218
1 4 10 228 231 218
-1 2 11 197 200 189
0 2 11 228 231 218
-2 3 11 228 231 218
-1 3 11 228 231 218
0 3 11 228 231 218
1 3 11 228 231 218
-1 4 11 228 231 218
0 4 11 228 231 218
