ply
format ascii 1.0
comment : MagicaVoxel @ Ephtracy
element vertex 408
property float x
property float y
property float z
property uchar red
property uchar green
property uchar blue
end_header
-8 -5 0 83 136 90
-7 -5 0 83 136 90
-8 -4 0 83 136 90
-7 -4 0 83 136 90
-6 -4 0 83 136 90
-5 -4 0 83 136 90
0 -4 0 54 54 54
1 -4 0 54 54 54
2 -4 0 54 54 54
-8 -3 0 99 156 96
-7 -3 0 83 136 90
-6 -3 0 83 136 90
-5 -3 0 180 201 98
-4 -3 0 83 136 90
0 -3 0 54 54 54
1 -3 0 54 54 54
2 -3 0 54 54 54
-7 -2 0 83 136 90
-6 -2 0 99 156 96
-5 -2 0 83 136 90
-4 -2 0 83 136 90
-3 -2 0 83 136 90
-4 -1 0 99 156 96
-3 -1 0 180 201 98
-2 -1 0 83 136 90
-1 -1 0 83 136 90
0 -1 0 54 54 54
1 -1 0 54 54 54
2 -1 0 54 54 54
-2 0 0 83 136 90
-1 0 0 180 201 98
0 0 0 54 54 54
1 0 0 54 54 54
2 0 0 54 54 54
1 1 0 83 136 90
2 1 0 83 136 90
3 1 0 83 136 90
3 2 0 83 136 90
4 2 0 83 136 90
4 3 0 83 136 90
4 4 0 83 136 90
5 5 0 83 136 90
5 6 0 83 136 90
5 7 0 99 156 96
6 7 0 83 136 90
0 -4 1 134 60 157
1 -4 1 86 86 86
2 -4 1 86 86 86
-6 -3 1 134 60 157
1 -3 1 86 86 86
2 -3 1 86 86 86
-8 -2 1 83 136 90
-8 -1 1 83 136 90
-7 -1 1 99 156 96
-6 -1 1 83 136 90
-5 -1 1 83 136 90
1 -1 1 86 86 86
2 -1 1 86 86 86
-8 0 1 99 156 96
-7 0 1 83 136 90
-6 0 1 83 136 90
-5 0 1 180 201 98
-4 0 1 83 136 90
-3 0 1 83 136 90
0 0 1 55 101 195
1 0 1 86 86 86
2 0 1 86 86 86
-7 1 1 99 156 96
-6 1 1 99 156 96
-5 1 1 83 136 90
-4 1 1 83 136 90
-3 1 1 83 136 90
-2 1 1 180 201 98
-1 1 1 83 136 90
0 1 1 83 136 90
-4 2 1 99 156 96
-3 2 1 83 136 90
-2 2 1 83 136 90
-1 2 1 180 201 98
0 2 1 99 156 96
1 2 1 83 136 90
2 2 1 83 136 90
-2 3 1 99 156 96
-1 3 1 83 136 90
0 3 1 99 156 96
1 3 1 99 156 96
2 3 1 83 136 90
3 3 1 83 136 90
0 4 1 180 201 98
1 4 1 99 156 96
2 4 1 99 156 96
3 4 1 83 136 90
2 5 1 125 201 98
3 5 1 99 156 96
4 5 1 83 136 90
3 6 1 125 201 98
4 6 1 83 136 90
5 6 1 76 181 223
4 7 1 99 156 96
1 -5 2 134 60 157
1 -4 2 86 86 86
2 -4 2 86 86 86
1 -3 2 86 86 86
2 -3 2 86 86 86
1 -1 2 86 86 86
2 -1 2 86 86 86
1 0 2 86 86 86
2 0 2 86 86 86
-8 1 2 83 136 90
-8 2 2 83 136 90
-7 2 2 83 136 90
-6 2 2 83 136 90
-5 2 2 99 156 96
-8 3 2 99 156 96
-7 3 2 83 136 90
-6 3 2 83 136 90
-5 3 2 83 136 90
-4 3 2 99 156 96
-3 3 2 99 156 96
-8 4 2 125 201 98
-7 4 2 83 136 90
-6 4 2 99 156 96
-5 4 2 125 201 98
-4 4 2 83 136 90
-3 4 2 99 156 96
-2 4 2 83 136 90
-1 4 2 83 136 90
3 4 2 217 203 181
-8 5 2 83 136 90
-7 5 2 99 156 96
-6 5 2 125 201 98
-5 5 2 99 156 96
-4 5 2 99 156 96
-3 5 2 83 136 90
-2 5 2 99 156 96
-1 5 2 180 201 98
0 5 2 99 156 96
1 5 2 83 136 90
-8 6 2 125 201 98
-7 6 2 99 156 96
-6 6 2 99 156 96
-5 6 2 99 156 96
-4 6 2 99 156 96
-3 6 2 125 201 98
-2 6 2 83 136 90
-1 6 2 180 201 98
0 6 2 99 156 96
1 6 2 83 136 90
2 6 2 99 156 96
-8 7 2 99 156 96
-7 7 2 125 201 98
-6 7 2 125 201 98
-5 7 2 99 156 96
-4 7 2 125 201 98
-3 7 2 125 201 98
-2 7 2 125 201 98
-1 7 2 125 201 98
0 7 2 180 201 98
1 7 2 125 201 98
2 7 2 125 201 98
3 7 2 99 156 96
1 -4 3 54 54 54
2 -4 3 86 86 86
1 -3 3 54 54 54
2 -3 3 86 86 86
1 -1 3 54 54 54
2 -1 3 86 86 86
1 0 3 54 54 54
2 0 3 86 86 86
-7 2 3 55 101 195
3 3 3 55 101 195
-6 4 3 76 181 223
2 4 3 55 101 195
3 4 3 217 203 181
4 4 3 55 101 195
3 5 3 76 181 223
-2 6 3 135 138 130
1 6 3 135 138 130
1 -4 4 114 114 114
2 -4 4 86 86 86
1 -3 4 86 86 86
2 -3 4 86 86 86
1 -1 4 114 114 114
2 -1 4 86 86 86
1 0 4 86 86 86
2 0 4 86 86 86
3 4 4 76 181 223
-2 6 4 255 225 0
1 6 4 255 225 0
1 -4 5 114 114 114
2 -4 5 114 114 114
1 -3 5 114 114 114
2 -3 5 86 86 86
1 -1 5 114 114 114
2 -1 5 86 86 86
1 0 5 86 86 86
2 0 5 114 114 114
0 -6 6 114 114 114
-1 -5 6 114 114 114
1 -4 6 114 114 114
2 -4 6 86 86 86
1 -3 6 114 114 114
2 -3 6 114 114 114
1 -2 6 114 114 114
2 -2 6 114 114 114
1 -1 6 114 114 114
2 -1 6 114 114 114
1 0 6 114 114 114
2 0 6 86 86 86
-1 1 6 86 86 86
0 2 6 135 138 130
-5 -6 7 54 54 54
-4 -6 7 54 54 54
-3 -6 7 86 86 86
0 -6 7 86 86 86
1 -6 7 114 114 114
-3 -5 7 54 54 54
-2 -5 7 114 114 114
-1 -5 7 86 86 86
0 -5 7 114 114 114
-5 -4 7 54 54 54
-4 -4 7 54 54 54
-3 -4 7 86 86 86
-2 -4 7 86 86 86
-1 -4 7 86 86 86
1 -3 7 114 114 114
2 -3 7 86 86 86
1 -2 7 114 114 114
2 -2 7 114 114 114
3 -2 7 206 96 200
1 -1 7 114 114 114
2 -1 7 86 86 86
-5 0 7 54 54 54
-4 0 7 54 54 54
-3 0 7 86 86 86
-2 0 7 86 86 86
-1 0 7 86 86 86
-3 1 7 54 54 54
-2 1 7 86 86 86
-1 1 7 86 86 86
0 1 7 86 86 86
-5 2 7 54 54 54
-4 2 7 54 54 54
-3 2 7 86 86 86
0 2 7 86 86 86
1 2 7 135 138 130
-2 -6 8 54 54 54
0 -6 8 86 86 86
1 -6 8 114 114 114
2 -6 8 114 114 114
-4 -5 8 135 138 130
-3 -5 8 197 200 189
0 -5 8 135 138 130
1 -5 8 114 114 114
-4 -4 8 135 138 130
-3 -4 8 135 138 130
-4 -3 8 135 138 130
-3 -3 8 135 138 130
1 -3 8 135 138 130
2 -3 8 114 114 114
-4 -2 8 228 231 218
-3 -2 8 135 138 130
1 -2 8 114 114 114
2 -2 8 114 114 114
-4 -1 8 197 200 189
-3 -1 8 228 231 218
1 -1 8 86 86 86
2 -1 8 114 114 114
3 -1 8 206 96 200
-4 0 8 135 138 130
-3 0 8 197 200 189
-4 1 8 135 138 130
-3 1 8 135 138 130
0 1 8 86 86 86
1 1 8 114 114 114
-2 2 8 114 114 114
0 2 8 114 114 114
1 2 8 135 138 130
2 2 8 114 114 114
-3 3 8 54 54 54
-4 -6 9 197 200 189
-3 -6 9 228 231 218
1 -6 9 114 114 114
2 -6 9 114 114 114
-4 -5 9 135 138 130
-3 -5 9 197 200 189
0 -5 9 76 181 223
1 -5 9 114 114 114
2 -5 9 135 138 130
-4 -4 9 135 138 130
-3 -4 9 135 138 130
-4 -3 9 135 138 130
-3 -3 9 135 138 130
1 -3 9 135 138 130
2 -3 9 114 114 114
3 -3 9 55 101 195
-4 -2 9 228 231 218
-3 -2 9 135 138 130
1 -2 9 135 138 130
2 -2 9 197 200 189
-4 -1 9 197 200 189
-3 -1 9 228 231 218
1 -1 9 86 86 86
2 -1 9 114 114 114
-4 0 9 135 138 130
-3 0 9 197 200 189
0 1 9 206 96 200
1 1 9 114 114 114
2 1 9 114 114 114
1 2 9 114 114 114
2 2 9 135 138 130
1 -6 10 135 138 130
2 -6 10 114 114 114
0 -5 10 236 245 246
1 -5 10 135 138 130
2 -5 10 135 138 130
1 -4 10 135 138 130
2 -4 10 135 138 130
0 -3 10 135 138 130
1 -3 10 197 200 189
2 -3 10 135 138 130
0 -2 10 135 138 130
1 -2 10 197 200 189
2 -2 10 135 138 130
0 -1 10 135 138 130
1 -1 10 197 200 189
2 -1 10 135 138 130
1 0 10 135 138 130
2 0 10 135 138 130
1 1 10 135 138 130
2 1 10 135 138 130
1 2 10 114 114 114
2 2 10 197 200 189
1 -5 11 135 138 130
2 -5 11 76 181 223
0 -4 11 135 138 130
1 -4 11 197 200 189
2 -4 11 135 138 130
0 -3 11 135 138 130
1 -3 11 197 200 189
2 -3 11 197 200 189
0 -2 11 197 200 189
1 -2 11 197 200 189
2 -2 11 135 138 130
0 -1 11 135 138 130
1 -1 11 197 200 189
2 -1 11 197 200 189
1 0 11 197 200 189
2 0 11 135 138 130
1 1 11 135 138 130
2 1 11 206 96 200
1 2 11 76 181 223
2 -5 12 236 245 246
1 -4 12 76 181 223
1 -3 12 197 200 189
2 -3 12 135 138 130
1 -2 12 197 200 189
2 -2 12 197 200 189
1 -1 12 135 138 130
2 -1 12 135 138 130
1 1 12 206 96 200
0 -3 13 135 138 130
1 -3 13 197 200 189
2 -3 13 197 200 189
0 -2 13 135 138 130
1 -2 13 197 200 189
2 -2 13 197 200 189
0 -1 13 135 138 130
1 -1 13 197 200 189
2 -1 13 197 200 189
1 1 13 246 236 244
1 -4 14 197 200 189
0 -3 14 197 200 189
1 -3 14 197 200 189
2 -3 14 197 200 189
0 -2 14 197 200 189
1 -2 14 197 200 189
2 -2 14 197 200 189
0 -1 14 135 138 130
1 -1 14 197 200 189
2 -1 14 135 138 130
2 0 14 197 200 189
1 -4 15 197 200 189
0 -3 15 255 225 0
1 -3 15 197 200 189
2 -3 15 255 225 0
0 -2 15 197 200 189
1 -2 15 197 200 189
2 -2 15 197 200 189
0 -1 15 197 200 189
1 -1 15 197 200 189
2 -1 15 197 200 189
1 0 15 135 138 130
0 -4 16 197 200 189
1 -4 16 228 231 218
2 -4 16 197 200 189
0 -3 16 228 231 218
1 -3 16 197 200 189
2 -3 16 228 231 218
0 -2 16 228 231 218
1 -2 16 197 200 189
2 -2 16 228 231 218
0 -1 16 228 231 218
1 -1 16 228 231 218
2 -1 16 135 138 130
1 0 16 135 138 130
1 -3 17 228 231 218
1 -2 17 228 231 218
