ply
format ascii 1.0
comment : MagicaVoxel @ Ephtracy
element vertex 284
property float x
property float y
property float z
property uchar red
property uchar green
property uchar blue
end_header
3 -7 0 76 181 223
5 -7 0 206 96 200
13 -7 0 76 181 223
2 -6 0 57 38 19
5 -6 0 57 38 19
6 -6 0 134 60 157
8 -6 0 57 38 19
11 -6 0 57 38 19
3 -5 0 197 200 189
4 -5 0 228 231 218
9 -5 0 135 138 130
10 -5 0 135 138 130
14 -5 0 206 96 200
3 -4 0 197 200 189
4 -4 0 197 200 189
8 -4 0 57 38 19
9 -4 0 197 200 189
10 -4 0 197 200 189
0 -3 0 83 136 90
2 -3 0 57 38 19
3 -3 0 197 200 189
4 -3 0 197 200 189
5 -3 0 57 38 19
8 -3 0 57 38 19
9 -3 0 135 138 130
10 -3 0 135 138 130
11 -3 0 57 38 19
0 -2 0 83 136 90
1 -2 0 83 136 90
12 -2 0 134 60 157
0 -1 0 83 136 90
1 -1 0 83 136 90
2 -1 0 83 136 90
0 0 0 83 136 90
1 0 0 99 156 96
2 0 0 83 136 90
14 0 0 55 101 195
1 1 0 99 156 96
2 1 0 83 136 90
6 1 0 55 101 195
10 1 0 54 54 54
11 1 0 86 86 86
12 1 0 86 86 86
13 1 0 54 54 54
1 2 0 83 136 90
2 2 0 83 136 90
10 2 0 54 54 54
11 2 0 86 86 86
12 2 0 86 86 86
13 2 0 54 54 54
1 3 0 83 136 90
0 4 0 83 136 90
8 4 0 206 96 200
10 4 0 54 54 54
11 4 0 86 86 86
12 4 0 86 86 86
13 4 0 54 54 54
2 5 0 217 203 181
5 5 0 76 181 223
10 5 0 54 54 54
11 5 0 86 86 86
12 5 0 86 86 86
13 5 0 54 54 54
6 6 0 217 203 181
2 -6 1 80 58 33
3 -6 1 197 200 189
4 -6 1 228 231 218
5 -6 1 80 58 33
8 -6 1 80 58 33
9 -6 1 197 200 189
11 -6 1 80 58 33
3 -5 1 197 200 189
4 -5 1 197 200 189
9 -5 1 135 138 130
10 -5 1 197 200 189
3 -4 1 228 231 218
4 -4 1 228 231 218
9 -4 1 135 138 130
10 -4 1 135 138 130
2 -3 1 80 58 33
5 -3 1 80 58 33
8 -3 1 80 58 33
10 -3 1 135 138 130
11 -3 1 80 58 33
0 1 1 114 114 114
2 1 1 55 101 195
10 1 1 135 138 130
11 1 1 86 86 86
12 1 1 86 86 86
13 1 1 54 54 54
0 2 1 86 86 86
1 2 1 86 86 86
2 2 1 86 86 86
3 2 1 86 86 86
10 2 1 86 86 86
11 2 1 86 86 86
12 2 1 86 86 86
13 2 1 54 54 54
0 3 1 86 86 86
1 3 1 86 86 86
2 3 1 86 86 86
3 3 1 86 86 86
0 4 1 114 114 114
10 4 1 135 138 130
11 4 1 86 86 86
12 4 1 86 86 86
13 4 1 54 54 54
2 5 1 76 181 223
10 5 1 86 86 86
11 5 1 86 86 86
12 5 1 86 86 86
13 5 1 54 54 54
6 6 1 134 60 157
2 -6 2 80 58 33
5 -6 2 80 58 33
8 -6 2 80 58 33
10 -6 2 197 200 189
11 -6 2 80 58 33
3 -5 2 228 231 218
4 -5 2 197 200 189
10 -5 2 135 138 130
3 -4 2 197 200 189
4 -4 2 228 231 218
10 -4 2 135 138 130
2 -3 2 80 58 33
3 -3 2 228 231 218
4 -3 2 197 200 189
5 -3 2 80 58 33
8 -3 2 80 58 33
11 -3 2 80 58 33
0 1 2 114 114 114
10 1 2 135 138 130
11 1 2 135 138 130
10 2 2 135 138 130
11 2 2 86 86 86
1 3 2 135 138 130
2 3 2 197 200 189
3 3 2 135 138 130
0 4 2 114 114 114
10 4 2 135 138 130
11 4 2 86 86 86
10 5 2 86 86 86
11 5 2 135 138 130
0 1 3 114 114 114
10 1 3 135 138 130
11 1 3 86 86 86
10 2 3 135 138 130
11 2 3 135 138 130
10 3 3 135 138 130
11 3 3 135 138 130
0 4 3 114 114 114
2 4 3 54 54 54
3 4 3 54 54 54
6 4 3 54 54 54
10 4 3 135 138 130
11 4 3 135 138 130
4 5 3 54 54 54
10 5 3 135 138 130
11 5 3 86 86 86
7 -6 4 54 54 54
9 -6 4 54 54 54
7 -5 4 54 54 54
9 -5 4 54 54 54
6 -4 4 54 54 54
7 -4 4 86 86 86
8 -4 4 54 54 54
9 -4 4 86 86 86
7 -3 4 54 54 54
8 -3 4 86 86 86
9 -3 4 54 54 54
0 2 4 114 114 114
10 2 4 197 200 189
11 2 4 86 86 86
0 3 4 114 114 114
10 3 4 135 138 130
11 3 4 135 138 130
3 4 4 54 54 54
4 4 4 86 86 86
6 4 4 54 54 54
7 4 4 54 54 54
8 4 4 135 138 130
10 4 4 135 138 130
11 4 4 86 86 86
5 5 4 54 54 54
6 5 4 54 54 54
7 5 4 54 54 54
8 5 4 135 138 130
9 -3 5 135 138 130
10 -3 5 54 54 54
8 -2 5 86 86 86
9 -2 5 86 86 86
10 -2 5 135 138 130
9 -1 5 54 54 54
10 -1 5 54 54 54
10 2 5 197 200 189
11 2 5 135 138 130
10 3 5 197 200 189
11 3 5 197 200 189
7 4 5 54 54 54
8 4 5 135 138 130
9 4 5 135 138 130
10 4 5 86 86 86
11 4 5 135 138 130
7 5 5 135 138 130
8 5 5 86 86 86
9 5 5 135 138 130
10 -2 6 135 138 130
9 -1 6 86 86 86
10 -1 6 54 54 54
9 0 6 135 138 130
10 0 6 135 138 130
9 1 6 135 138 130
10 1 6 135 138 130
9 2 6 197 200 189
10 2 6 197 200 189
9 3 6 228 231 218
10 3 6 197 200 189
11 3 6 228 231 218
8 4 6 135 138 130
9 4 6 197 200 189
10 4 6 86 86 86
8 5 6 86 86 86
9 5 6 197 200 189
9 0 7 228 231 218
10 0 7 86 86 86
8 1 7 135 138 130
9 1 7 197 200 189
10 1 7 197 200 189
8 2 7 228 231 218
9 2 7 197 200 189
10 2 7 197 200 189
8 3 7 135 138 130
9 3 7 197 200 189
10 3 7 197 200 189
8 4 7 228 231 218
9 4 7 197 200 189
10 4 7 197 200 189
8 5 7 135 138 130
9 5 7 86 86 86
7 2 8 197 200 189
8 2 8 197 200 189
9 2 8 228 231 218
10 2 8 197 200 189
7 3 8 197 200 189
8 3 8 197 200 189
9 3 8 197 200 189
10 3 8 197 200 189
7 4 8 197 200 189
8 4 8 197 200 189
9 4 8 228 231 218
10 4 8 228 231 218
6 2 9 255 225 0
7 2 9 228 231 218
8 2 9 197 200 189
9 2 9 197 200 189
6 3 9 228 231 218
7 3 9 197 200 189
8 3 9 197 200 189
9 3 9 197 200 189
10 3 9 228 231 218
6 4 9 255 225 0
7 4 9 228 231 218
8 4 9 197 200 189
9 4 9 197 200 189
6 2 10 197 200 189
7 2 10 197 200 189
8 2 10 197 200 189
9 2 10 228 231 218
6 3 10 197 200 189
7 3 10 197 200 189
8 3 10 197 200 189
9 3 10 197 200 189
6 4 10 197 200 189
7 4 10 197 200 189
8 4 10 228 231 218
9 4 10 228 231 218
7 2 11 197 200 189
8 2 11 228 231 218
6 3 11 228 231 218
7 3 11 228 231 218
8 3 11 228 231 218
9 3 11 228 231 218
7 4 11 228 231 218
8 4 11 228 231 218
