ply
format ascii 1.0
comment : MagicaVoxel @ Ephtracy
element vertex 717
property float x
property float y
property float z
property uchar red
property uchar green
property uchar blue
end_header
-7 -8 0 119 119 119
-6 -8 0 119 119 119
-5 -8 0 119 119 119
-4 -8 0 119 119 119
3 -8 0 119 119 119
4 -8 0 119 119 119
5 -8 0 119 119 119
6 -8 0 119 119 119
-8 -7 0 119 119 119
-7 -7 0 119 119 119
-6 -7 0 119 119 119
-5 -7 0 119 119 119
-4 -7 0 119 119 119
3 -7 0 119 119 119
4 -7 0 119 119 119
5 -7 0 119 119 119
6 -7 0 119 119 119
7 -7 0 119 119 119
-8 -6 0 119 119 119
-7 -6 0 119 119 119
-6 -6 0 119 119 119
-5 -6 0 119 119 119
-4 -6 0 119 119 119
-3 -6 0 119 119 119
2 -6 0 119 119 119
3 -6 0 119 119 119
4 -6 0 119 119 119
5 -6 0 119 119 119
6 -6 0 119 119 119
7 -6 0 119 119 119
-8 -5 0 119 119 119
-7 -5 0 119 119 119
-6 -5 0 119 119 119
-5 -5 0 119 119 119
-4 -5 0 119 119 119
-3 -5 0 119 119 119
2 -5 0 119 119 119
3 -5 0 119 119 119
4 -5 0 119 119 119
5 -5 0 119 119 119
6 -5 0 119 119 119
7 -5 0 119 119 119
-8 -4 0 119 119 119
-7 -4 0 119 119 119
-6 -4 0 119 119 119
-5 -4 0 119 119 119
-4 -4 0 119 119 119
-3 -4 0 119 119 119
2 -4 0 119 119 119
3 -4 0 119 119 119
4 -4 0 119 119 119
5 -4 0 119 119 119
6 -4 0 119 119 119
7 -4 0 119 119 119
-6 -3 0 119 119 119
-5 -3 0 119 119 119
-4 -3 0 119 119 119
-3 -3 0 119 119 119
2 -3 0 119 119 119
3 -3 0 119 119 119
4 -3 0 119 119 119
5 -3 0 119 119 119
-6 2 0 119 119 119
-5 2 0 119 119 119
-4 2 0 119 119 119
-3 2 0 119 119 119
2 2 0 119 119 119
3 2 0 119 119 119
4 2 0 119 119 119
5 2 0 119 119 119
-8 3 0 119 119 119
-7 3 0 119 119 119
-6 3 0 119 119 119
-5 3 0 119 119 119
-4 3 0 119 119 119
-3 3 0 119 119 119
2 3 0 119 119 119
3 3 0 119 119 119
4 3 0 119 119 119
5 3 0 119 119 119
6 3 0 119 119 119
7 3 0 119 119 119
-8 4 0 119 119 119
-7 4 0 119 119 119
-6 4 0 119 119 119
-5 4 0 119 119 119
-4 4 0 119 119 119
-3 4 0 119 119 119
2 4 0 119 119 119
3 4 0 119 119 119
4 4 0 119 119 119
5 4 0 119 119 119
6 4 0 119 119 119
7 4 0 119 119 119
-8 5 0 119 119 119
-7 5 0 119 119 119
-6 5 0 119 119 119
-5 5 0 119 119 119
-4 5 0 119 119 119
-3 5 0 119 119 119
2 5 0 119 119 119
3 5 0 119 119 119
4 5 0 119 119 119
5 5 0 119 119 119
6 5 0 119 119 119
7 5 0 119 119 119
-8 6 0 119 119 119
-7 6 0 119 119 119
-6 6 0 119 119 119
-5 6 0 119 119 119
-4 6 0 119 119 119
3 6 0 119 119 119
4 6 0 119 119 119
5 6 0 119 119 119
6 6 0 119 119 119
7 6 0 119 119 119
-7 7 0 119 119 119
-6 7 0 119 119 119
-5 7 0 119 119 119
-4 7 0 119 119 119
3 7 0 119 119 119
4 7 0 119 119 119
5 7 0 119 119 119
6 7 0 119 119 119
-7 -7 1 238 238 238
-6 -7 1 119 119 119
-5 -7 1 119 119 119
-4 -7 1 119 119 119
3 -7 1 119 119 119
4 -7 1 119 119 119
5 -7 1 119 119 119
6 -7 1 238 238 238
-7 -6 1 119 119 119
-6 -6 1 238 238 238
-5 -6 1 119 119 119
-4 -6 1 119 119 119
-3 -6 1 119 119 119
2 -6 1 119 119 119
3 -6 1 119 119 119
4 -6 1 119 119 119
5 -6 1 238 238 238
6 -6 1 119 119 119
-7 -5 1 119 119 119
-6 -5 1 119 119 119
-5 -5 1 119 119 119
-4 -5 1 119 119 119
-3 -5 1 119 119 119
2 -5 1 119 119 119
3 -5 1 119 119 119
4 -5 1 119 119 119
5 -5 1 119 119 119
6 -5 1 119 119 119
-7 -4 1 119 119 119
-6 -4 1 119 119 119
-5 -4 1 119 119 119
-4 -4 1 119 119 119
-3 -4 1 119 119 119
2 -4 1 119 119 119
3 -4 1 119 119 119
4 -4 1 119 119 119
5 -4 1 119 119 119
6 -4 1 119 119 119
-6 -3 1 119 119 119
-5 -3 1 119 119 119
-4 -3 1 119 119 119
-3 -3 1 119 119 119
-2 -3 1 68 68 68
-1 -3 1 68 68 68
0 -3 1 68 68 68
1 -3 1 68 68 68
2 -3 1 119 119 119
3 -3 1 119 119 119
4 -3 1 119 119 119
5 -3 1 119 119 119
-3 -2 1 68 68 68
-2 -2 1 119 119 119
-1 -2 1 119 119 119
0 -2 1 119 119 119
1 -2 1 119 119 119
2 -2 1 68 68 68
-3 -1 1 68 68 68
-2 -1 1 119 119 119
-1 -1 1 119 119 119
0 -1 1 119 119 119
1 -1 1 119 119 119
2 -1 1 68 68 68
-3 0 1 68 68 68
-2 0 1 119 119 119
-1 0 1 119 119 119
0 0 1 119 119 119
1 0 1 119 119 119
2 0 1 68 68 68
-3 1 1 68 68 68
-2 1 1 119 119 119
-1 1 1 119 119 119
0 1 1 119 119 119
1 1 1 119 119 119
2 1 1 68 68 68
-6 2 1 119 119 119
-5 2 1 119 119 119
-4 2 1 119 119 119
-3 2 1 119 119 119
-2 2 1 68 68 68
-1 2 1 68 68 68
0 2 1 68 68 68
1 2 1 68 68 68
2 2 1 119 119 119
3 2 1 119 119 119
4 2 1 119 119 119
5 2 1 119 119 119
-7 3 1 119 119 119
-6 3 1 119 119 119
-5 3 1 119 119 119
-4 3 1 119 119 119
-3 3 1 119 119 119
2 3 1 119 119 119
3 3 1 119 119 119
4 3 1 119 119 119
5 3 1 119 119 119
6 3 1 119 119 119
-7 4 1 119 119 119
-6 4 1 119 119 119
-5 4 1 119 119 119
-4 4 1 119 119 119
-3 4 1 119 119 119
2 4 1 119 119 119
3 4 1 119 119 119
4 4 1 119 119 119
5 4 1 119 119 119
6 4 1 119 119 119
-7 5 1 119 119 119
-6 5 1 238 238 238
-5 5 1 119 119 119
-4 5 1 119 119 119
-3 5 1 119 119 119
2 5 1 119 119 119
3 5 1 119 119 119
4 5 1 119 119 119
5 5 1 238 238 238
6 5 1 119 119 119
-7 6 1 238 238 238
-6 6 1 119 119 119
-5 6 1 119 119 119
-4 6 1 119 119 119
3 6 1 119 119 119
4 6 1 119 119 119
5 6 1 119 119 119
6 6 1 238 238 238
-5 -5 2 238 238 238
-4 -5 2 119 119 119
-3 -5 2 119 119 119
2 -5 2 119 119 119
3 -5 2 119 119 119
4 -5 2 238 238 238
-5 -4 2 119 119 119
-4 -4 2 238 238 238
-3 -4 2 119 119 119
-2 -4 2 68 68 68
-1 -4 2 68 68 68
0 -4 2 68 68 68
1 -4 2 68 68 68
2 -4 2 119 119 119
3 -4 2 238 238 238
4 -4 2 119 119 119
-5 -3 2 119 119 119
-4 -3 2 119 119 119
-3 -3 2 119 119 119
-2 -3 2 119 119 119
-1 -3 2 119 119 119
0 -3 2 119 119 119
1 -3 2 119 119 119
2 -3 2 119 119 119
3 -3 2 119 119 119
4 -3 2 119 119 119
-4 -2 2 68 68 68
-3 -2 2 119 119 119
-2 -2 2 119 119 119
-1 -2 2 119 119 119
0 -2 2 119 119 119
1 -2 2 119 119 119
2 -2 2 119 119 119
3 -2 2 68 68 68
-4 -1 2 68 68 68
-3 -1 2 119 119 119
-2 -1 2 119 119 119
-1 -1 2 119 119 119
0 -1 2 119 119 119
1 -1 2 119 119 119
2 -1 2 119 119 119
3 -1 2 68 68 68
-4 0 2 68 68 68
-3 0 2 119 119 119
-2 0 2 119 119 119
-1 0 2 119 119 119
0 0 2 119 119 119
1 0 2 119 119 119
2 0 2 119 119 119
3 0 2 68 68 68
-4 1 2 68 68 68
-3 1 2 119 119 119
-2 1 2 119 119 119
-1 1 2 119 119 119
0 1 2 119 119 119
1 1 2 119 119 119
2 1 2 119 119 119
3 1 2 68 68 68
-5 2 2 119 119 119
-4 2 2 119 119 119
-3 2 2 119 119 119
-2 2 2 119 119 119
-1 2 2 119 119 119
0 2 2 119 119 119
1 2 2 119 119 119
2 2 2 119 119 119
3 2 2 119 119 119
4 2 2 119 119 119
-5 3 2 119 119 119
-4 3 2 238 238 238
-3 3 2 119 119 119
-2 3 2 68 68 68
-1 3 2 68 68 68
0 3 2 68 68 68
1 3 2 68 68 68
2 3 2 119 119 119
3 3 2 238 238 238
4 3 2 119 119 119
-5 4 2 238 238 238
-4 4 2 119 119 119
-3 4 2 119 119 119
2 4 2 119 119 119
3 4 2 119 119 119
4 4 2 238 238 238
-3 -4 3 119 119 119
-2 -4 3 119 119 119
-1 -4 3 119 119 119
0 -4 3 119 119 119
1 -4 3 119 119 119
2 -4 3 119 119 119
-4 -3 3 119 119 119
-3 -3 3 68 68 68
-2 -3 3 68 68 68
-1 -3 3 68 68 68
0 -3 3 68 68 68
1 -3 3 68 68 68
2 -3 3 68 68 68
3 -3 3 119 119 119
-4 -2 3 119 119 119
-3 -2 3 68 68 68
-2 -2 3 68 68 68
-1 -2 3 68 68 68
0 -2 3 68 68 68
1 -2 3 68 68 68
2 -2 3 68 68 68
3 -2 3 119 119 119
-4 -1 3 119 119 119
-3 -1 3 68 68 68
-2 -1 3 68 68 68
-1 -1 3 68 68 68
0 -1 3 68 68 68
1 -1 3 68 68 68
2 -1 3 68 68 68
3 -1 3 119 119 119
-4 0 3 119 119 119
-3 0 3 68 68 68
-2 0 3 68 68 68
-1 0 3 68 68 68
0 0 3 68 68 68
1 0 3 68 68 68
2 0 3 68 68 68
3 0 3 119 119 119
-4 1 3 119 119 119
-3 1 3 68 68 68
-2 1 3 68 68 68
-1 1 3 68 68 68
0 1 3 68 68 68
1 1 3 68 68 68
2 1 3 68 68 68
3 1 3 119 119 119
-4 2 3 119 119 119
-3 2 3 68 68 68
-2 2 3 68 68 68
-1 2 3 68 68 68
0 2 3 68 68 68
1 2 3 68 68 68
2 2 3 68 68 68
3 2 3 119 119 119
-3 3 3 119 119 119
-2 3 3 119 119 119
-1 3 3 119 119 119
0 3 3 119 119 119
1 3 3 119 119 119
2 3 3 119 119 119
-1 -4 4 119 119 119
0 -4 4 119 119 119
-2 -3 4 68 68 68
-1 -3 4 68 68 68
0 -3 4 68 68 68
1 -3 4 68 68 68
-3 -2 4 68 68 68
-2 -2 4 68 68 68
-1 -2 4 68 68 68
0 -2 4 68 68 68
1 -2 4 68 68 68
2 -2 4 68 68 68
-4 -1 4 119 119 119
-3 -1 4 68 68 68
-2 -1 4 68 68 68
-1 -1 4 68 68 68
0 -1 4 68 68 68
1 -1 4 68 68 68
2 -1 4 68 68 68
3 -1 4 119 119 119
-4 0 4 119 119 119
-3 0 4 68 68 68
-2 0 4 68 68 68
-1 0 4 68 68 68
0 0 4 68 68 68
1 0 4 68 68 68
2 0 4 68 68 68
3 0 4 119 119 119
-3 1 4 68 68 68
-2 1 4 68 68 68
-1 1 4 68 68 68
0 1 4 68 68 68
1 1 4 68 68 68
2 1 4 68 68 68
-2 2 4 68 68 68
-1 2 4 68 68 68
0 2 4 68 68 68
1 2 4 68 68 68
-1 3 4 119 119 119
0 3 4 119 119 119
-1 -4 5 119 119 119
0 -4 5 119 119 119
-2 -3 5 68 68 68
-1 -3 5 68 68 68
0 -3 5 68 68 68
1 -3 5 68 68 68
-2 -2 5 68 68 68
-1 -2 5 68 68 68
0 -2 5 68 68 68
1 -2 5 68 68 68
-4 -1 5 119 119 119
-3 -1 5 68 68 68
-2 -1 5 68 68 68
-1 -1 5 68 68 68
0 -1 5 68 68 68
1 -1 5 68 68 68
2 -1 5 68 68 68
3 -1 5 119 119 119
-4 0 5 119 119 119
-3 0 5 68 68 68
-2 0 5 68 68 68
-1 0 5 68 68 68
0 0 5 68 68 68
1 0 5 68 68 68
2 0 5 68 68 68
3 0 5 119 119 119
-2 1 5 68 68 68
-1 1 5 68 68 68
0 1 5 68 68 68
1 1 5 68 68 68
-2 2 5 68 68 68
-1 2 5 68 68 68
0 2 5 68 68 68
1 2 5 68 68 68
-1 3 5 119 119 119
0 3 5 119 119 119
-1 -3 6 119 119 119
0 -3 6 119 119 119
-2 -2 6 68 68 68
-1 -2 6 68 68 68
0 -2 6 68 68 68
1 -2 6 68 68 68
-3 -1 6 119 119 119
-2 -1 6 68 68 68
-1 -1 6 68 68 68
0 -1 6 68 68 68
1 -1 6 68 68 68
2 -1 6 119 119 119
-3 0 6 119 119 119
-2 0 6 68 68 68
-1 0 6 68 68 68
0 0 6 68 68 68
1 0 6 68 68 68
2 0 6 119 119 119
-2 1 6 68 68 68
-1 1 6 68 68 68
0 1 6 68 68 68
1 1 6 68 68 68
-1 2 6 119 119 119
0 2 6 119 119 119
-2 -2 7 34 0 0
-1 -2 7 34 0 0
0 -2 7 34 0 0
1 -2 7 34 0 0
-2 -1 7 34 0 0
-1 -1 7 68 68 68
0 -1 7 68 68 68
1 -1 7 34 0 0
-2 0 7 34 0 0
-1 0 7 68 68 68
0 0 7 68 68 68
1 0 7 34 0 0
-2 1 7 34 0 0
-1 1 7 34 0 0
0 1 7 34 0 0
1 1 7 34 0 0
-2 -2 8 68 68 68
-1 -2 8 68 68 68
0 -2 8 68 68 68
1 -2 8 68 68 68
-2 -1 8 68 68 68
-1 -1 8 68 68 68
0 -1 8 68 68 68
1 -1 8 68 68 68
-2 0 8 68 68 68
-1 0 8 68 68 68
0 0 8 68 68 68
1 0 8 68 68 68
-2 1 8 68 68 68
-1 1 8 68 68 68
0 1 8 68 68 68
1 1 8 68 68 68
-2 -2 9 68 68 68
-1 -2 9 119 119 119
0 -2 9 119 119 119
1 -2 9 68 68 68
-3 -1 9 119 119 119
-2 -1 9 68 68 68
-1 -1 9 119 119 119
0 -1 9 119 119 119
1 -1 9 68 68 68
2 -1 9 119 119 119
-3 0 9 119 119 119
-2 0 9 68 68 68
-1 0 9 119 119 119
0 0 9 119 119 119
1 0 9 68 68 68
2 0 9 119 119 119
-2 1 9 68 68 68
-1 1 9 119 119 119
0 1 9 119 119 119
1 1 9 68 68 68
-2 -3 10 68 68 68
1 -3 10 68 68 68
-2 -2 10 68 68 68
1 -2 10 68 68 68
-4 -1 10 68 68 68
-3 -1 10 119 119 119
-2 -1 10 68 68 68
1 -1 10 68 68 68
2 -1 10 119 119 119
3 -1 10 68 68 68
-4 0 10 68 68 68
-3 0 10 119 119 119
-2 0 10 68 68 68
1 0 10 68 68 68
2 0 10 119 119 119
3 0 10 68 68 68
-2 1 10 68 68 68
1 1 10 68 68 68
-2 2 10 68 68 68
1 2 10 68 68 68
-2 -3 11 68 68 68
1 -3 11 68 68 68
-4 -2 11 68 68 68
-3 -2 11 119 119 119
-2 -2 11 68 68 68
1 -2 11 68 68 68
2 -2 11 119 119 119
3 -2 11 68 68 68
-4 -1 11 68 68 68
-3 -1 11 68 68 68
-2 -1 11 68 68 68
1 -1 11 68 68 68
2 -1 11 68 68 68
3 -1 11 68 68 68
-4 0 11 68 68 68
-3 0 11 68 68 68
-2 0 11 68 68 68
1 0 11 68 68 68
2 0 11 68 68 68
3 0 11 68 68 68
-4 1 11 68 68 68
-3 1 11 119 119 119
-2 1 11 68 68 68
1 1 11 68 68 68
2 1 11 119 119 119
3 1 11 68 68 68
-2 2 11 68 68 68
1 2 11 68 68 68
-1 -5 12 68 68 68
-1 -4 12 34 0 0
-4 -3 12 68 68 68
-3 -3 12 119 119 119
-2 -3 12 68 68 68
-1 -3 12 34 0 0
1 -3 12 68 68 68
2 -3 12 119 119 119
3 -3 12 68 68 68
-4 -2 12 68 68 68
-3 -2 12 68 68 68
-2 -2 12 68 68 68
-1 -2 12 34 0 0
0 -2 12 34 0 0
1 -2 12 68 68 68
2 -2 12 68 68 68
3 -2 12 68 68 68
-3 -1 12 119 119 119
-2 -1 12 68 68 68
-1 -1 12 34 0 0
0 -1 12 34 0 0
1 -1 12 68 68 68
2 -1 12 119 119 119
-3 0 12 119 119 119
-2 0 12 68 68 68
-1 0 12 34 0 0
0 0 12 34 0 0
1 0 12 68 68 68
2 0 12 119 119 119
-4 1 12 68 68 68
-3 1 12 68 68 68
-2 1 12 68 68 68
-1 1 12 119 119 119
0 1 12 119 119 119
1 1 12 68 68 68
2 1 12 68 68 68
3 1 12 68 68 68
-4 2 12 68 68 68
-3 2 12 119 119 119
-2 2 12 68 68 68
1 2 12 68 68 68
2 2 12 119 119 119
3 2 12 68 68 68
-1 -8 13 221 0 0
-1 -7 13 34 0 0
-1 -6 13 34 0 0
-1 -5 13 34 0 0
-1 -4 13 34 0 0
-4 -3 13 68 68 68
-3 -3 13 119 119 119
-2 -3 13 68 68 68
-1 -3 13 34 0 0
1 -3 13 68 68 68
2 -3 13 119 119 119
3 -3 13 68 68 68
-4 -2 13 68 68 68
-3 -2 13 68 68 68
-2 -2 13 68 68 68
-1 -2 13 34 0 0
0 -2 13 221 0 0
1 -2 13 68 68 68
2 -2 13 68 68 68
3 -2 13 68 68 68
-3 -1 13 119 119 119
-2 -1 13 68 68 68
-1 -1 13 34 0 0
0 -1 13 34 0 0
1 -1 13 68 68 68
2 -1 13 119 119 119
-3 0 13 119 119 119
-2 0 13 68 68 68
-1 0 13 34 0 0
0 0 13 34 0 0
1 0 13 68 68 68
2 0 13 119 119 119
-4 1 13 68 68 68
-3 1 13 68 68 68
-2 1 13 68 68 68
-1 1 13 119 119 119
0 1 13 119 119 119
1 1 13 68 68 68
2 1 13 68 68 68
3 1 13 68 68 68
-4 2 13 68 68 68
-3 2 13 119 119 119
-2 2 13 68 68 68
1 2 13 68 68 68
2 2 13 119 119 119
3 2 13 68 68 68
-4 -2 14 68 68 68
-3 -2 14 119 119 119
-2 -2 14 68 68 68
1 -2 14 68 68 68
2 -2 14 119 119 119
3 -2 14 68 68 68
-4 -1 14 68 68 68
-3 -1 14 68 68 68
-2 -1 14 68 68 68
1 -1 14 68 68 68
2 -1 14 68 68 68
3 -1 14 68 68 68
-4 0 14 68 68 68
-3 0 14 68 68 68
-2 0 14 68 68 68
1 0 14 68 68 68
2 0 14 68 68 68
3 0 14 68 68 68
-4 1 14 68 68 68
-3 1 14 119 119 119
-2 1 14 68 68 68
1 1 14 68 68 68
2 1 14 119 119 119
3 1 14 68 68 68
-4 -1 15 68 68 68
-3 -1 15 119 119 119
-2 -1 15 68 68 68
1 -1 15 68 68 68
2 -1 15 119 119 119
3 -1 15 68 68 68
-4 0 15 68 68 68
-3 0 15 119 119 119
-2 0 15 68 68 68
1 0 15 68 68 68
2 0 15 119 119 119
3 0 15 68 68 68
