ply
format ascii 1.0
comment : MagicaVoxel @ Ephtracy
element vertex 514
property float x
property float y
property float z
property uchar red
property uchar green
property uchar blue
end_header
4 -7 0 86 86 86
2 -6 0 241 244 230
3 -6 0 241 244 230
4 -6 0 197 200 189
5 -6 0 241 244 230
6 -6 0 241 244 230
2 -5 0 197 200 189
3 -5 0 197 200 189
4 -5 0 197 200 189
5 -5 0 197 200 189
6 -5 0 241 244 230
-6 -4 0 135 138 130
-5 -4 0 135 138 130
-4 -4 0 135 138 130
-3 -4 0 135 138 130
-2 -4 0 135 138 130
2 -4 0 197 200 189
3 -4 0 197 200 189
4 -4 0 197 200 189
5 -4 0 197 200 189
6 -4 0 241 244 230
-6 -3 0 135 138 130
-5 -3 0 135 138 130
-4 -3 0 135 138 130
2 -3 0 197 200 189
3 -3 0 197 200 189
4 -3 0 197 200 189
5 -3 0 197 200 189
6 -3 0 241 244 230
-5 -2 0 135 138 130
2 -2 0 197 200 189
3 -2 0 197 200 189
4 -2 0 197 200 189
5 -2 0 197 200 189
6 -2 0 241 244 230
-7 0 0 241 244 230
-6 0 0 135 138 130
-5 0 0 135 138 130
-4 0 0 135 138 130
-3 0 0 197 200 189
-2 0 0 197 200 189
-1 0 0 197 200 189
0 0 0 197 200 189
1 0 0 197 200 189
2 0 0 197 200 189
3 0 0 197 200 189
4 0 0 197 200 189
5 0 0 197 200 189
6 0 0 241 244 230
-7 1 0 241 244 230
-6 1 0 135 138 130
-5 1 0 135 138 130
-4 1 0 135 138 130
-3 1 0 135 138 130
-2 1 0 135 138 130
-1 1 0 135 138 130
0 1 0 135 138 130
1 1 0 135 138 130
2 1 0 135 138 130
3 1 0 135 138 130
4 1 0 135 138 130
5 1 0 135 138 130
6 1 0 241 244 230
-7 2 0 241 244 230
-6 2 0 135 138 130
-5 2 0 135 138 130
-4 2 0 135 138 130
-3 2 0 135 138 130
-2 2 0 135 138 130
-1 2 0 135 138 130
0 2 0 135 138 130
1 2 0 135 138 130
2 2 0 135 138 130
3 2 0 135 138 130
4 2 0 135 138 130
5 2 0 135 138 130
6 2 0 241 244 230
-7 3 0 241 244 230
-6 3 0 135 138 130
-5 3 0 135 138 130
-4 3 0 135 138 130
-3 3 0 135 138 130
-2 3 0 135 138 130
-1 3 0 135 138 130
0 3 0 135 138 130
1 3 0 135 138 130
2 3 0 135 138 130
3 3 0 135 138 130
4 3 0 135 138 130
5 3 0 135 138 130
6 3 0 241 244 230
-7 4 0 241 244 230
-6 4 0 135 138 130
-5 4 0 135 138 130
-4 4 0 135 138 130
-3 4 0 135 138 130
-2 4 0 135 138 130
-1 4 0 135 138 130
0 4 0 135 138 130
1 4 0 135 138 130
2 4 0 135 138 130
3 4 0 135 138 130
4 4 0 135 138 130
5 4 0 135 138 130
6 4 0 241 244 230
-7 5 0 241 244 230
-6 5 0 135 138 130
-5 5 0 135 138 130
-4 5 0 135 138 130
-3 5 0 135 138 130
-2 5 0 135 138 130
-1 5 0 135 138 130
0 5 0 135 138 130
1 5 0 135 138 130
2 5 0 135 138 130
3 5 0 135 138 130
4 5 0 135 138 130
5 5 0 135 138 130
6 5 0 241 244 230
-7 6 0 241 244 230
-6 6 0 241 244 230
-5 6 0 241 244 230
-4 6 0 241 244 230
-3 6 0 241 244 230
-2 6 0 241 244 230
-1 6 0 241 244 230
0 6 0 241 244 230
1 6 0 241 244 230
2 6 0 241 244 230
3 6 0 241 244 230
4 6 0 241 244 230
5 6 0 241 244 230
6 6 0 241 244 230
4 -7 1 86 86 86
5 -7 1 86 86 86
2 -6 1 241 244 230
3 -6 1 241 244 230
4 -6 1 197 200 189
5 -6 1 197 200 189
6 -6 1 241 244 230
-6 -5 1 135 138 130
-5 -5 1 86 86 86
-4 -5 1 135 138 130
-3 -5 1 135 138 130
-2 -5 1 86 86 86
-1 -5 1 135 138 130
0 -5 1 86 86 86
1 -5 1 135 138 130
2 -5 1 86 86 86
3 -5 1 135 138 130
5 -5 1 197 200 189
6 -5 1 241 244 230
-6 -4 1 135 138 130
-5 -4 1 86 86 86
-4 -4 1 135 138 130
-3 -4 1 135 138 130
-2 -4 1 86 86 86
-1 -4 1 135 138 130
0 -4 1 135 138 130
1 -4 1 135 138 130
2 -4 1 86 86 86
3 -4 1 135 138 130
5 -4 1 197 200 189
6 -4 1 241 244 230
-6 -3 1 135 138 130
-5 -3 1 135 138 130
-4 -3 1 135 138 130
-3 -3 1 135 138 130
-2 -3 1 86 86 86
-1 -3 1 135 138 130
0 -3 1 86 86 86
1 -3 1 135 138 130
2 -3 1 86 86 86
3 -3 1 135 138 130
5 -3 1 197 200 189
6 -3 1 241 244 230
-6 -2 1 86 86 86
-5 -2 1 86 86 86
-4 -2 1 86 86 86
2 -2 1 197 200 189
3 -2 1 197 200 189
4 -2 1 197 200 189
5 -2 1 197 200 189
6 -2 1 241 244 230
-6 -1 1 135 138 130
-5 -1 1 135 138 130
-4 -1 1 135 138 130
-7 0 1 241 244 230
-6 0 1 86 86 86
-5 0 1 86 86 86
-4 0 1 86 86 86
-3 0 1 241 244 230
-2 0 1 241 244 230
-1 0 1 241 244 230
0 0 1 241 244 230
1 0 1 241 244 230
2 0 1 241 244 230
3 0 1 241 244 230
4 0 1 241 244 230
5 0 1 241 244 230
6 0 1 241 244 230
-7 1 1 241 244 230
6 1 1 241 244 230
-7 2 1 241 244 230
6 2 1 241 244 230
-7 3 1 241 244 230
6 3 1 241 244 230
-7 4 1 241 244 230
6 4 1 241 244 230
-7 5 1 241 244 230
6 5 1 241 244 230
-7 6 1 241 244 230
-6 6 1 241 244 230
-5 6 1 241 244 230
-4 6 1 241 244 230
-3 6 1 241 244 230
-2 6 1 241 244 230
-1 6 1 241 244 230
0 6 1 241 244 230
1 6 1 241 244 230
2 6 1 241 244 230
3 6 1 241 244 230
4 6 1 241 244 230
5 6 1 241 244 230
6 6 1 241 244 230
4 -7 2 255 225 0
5 -7 2 86 86 86
2 -6 2 241 244 230
3 -6 2 241 244 230
4 -6 2 197 200 189
5 -6 2 197 200 189
6 -6 2 241 244 230
5 -5 2 197 200 189
6 -5 2 241 244 230
-3 -4 2 242 60 84
0 -4 2 242 60 84
3 -4 2 242 60 84
5 -4 2 197 200 189
6 -4 2 241 244 230
-5 -3 2 242 60 84
3 -3 2 242 60 84
5 -3 2 197 200 189
6 -3 2 241 244 230
2 -2 2 197 200 189
3 -2 2 197 200 189
4 -2 2 197 200 189
5 -2 2 197 200 189
6 -2 2 241 244 230
-6 -1 2 86 86 86
-4 -1 2 86 86 86
-7 0 2 241 244 230
-6 0 2 86 86 86
-4 0 2 86 86 86
-3 0 2 241 244 230
-2 0 2 241 244 230
-1 0 2 241 244 230
0 0 2 241 244 230
1 0 2 241 244 230
2 0 2 241 244 230
3 0 2 241 244 230
4 0 2 241 244 230
5 0 2 241 244 230
6 0 2 241 244 230
-7 1 2 241 244 230
6 1 2 241 244 230
-7 2 2 241 244 230
-5 2 2 242 60 84
-1 2 2 242 60 84
3 2 2 242 60 84
6 2 2 241 244 230
-7 3 2 241 244 230
-5 3 2 242 60 84
-1 3 2 242 60 84
3 3 2 242 60 84
6 3 2 241 244 230
-7 4 2 241 244 230
-5 4 2 242 60 84
-1 4 2 242 60 84
3 4 2 242 60 84
6 4 2 241 244 230
-7 5 2 241 244 230
6 5 2 241 244 230
-7 6 2 241 244 230
-6 6 2 241 244 230
-5 6 2 241 244 230
-4 6 2 241 244 230
-3 6 2 241 244 230
-2 6 2 241 244 230
-1 6 2 241 244 230
0 6 2 241 244 230
1 6 2 241 244 230
2 6 2 241 244 230
3 6 2 241 244 230
4 6 2 241 244 230
5 6 2 241 244 230
6 6 2 241 244 230
2 -6 3 241 244 230
3 -6 3 241 244 230
4 -6 3 241 244 230
5 -6 3 241 244 230
6 -6 3 241 244 230
5 -5 3 197 200 189
6 -5 3 241 244 230
5 -4 3 197 200 189
6 -4 3 241 244 230
5 -3 3 197 200 189
6 -3 3 241 244 230
2 -2 3 197 200 189
3 -2 3 197 200 189
4 -2 3 197 200 189
5 -2 3 197 200 189
6 -2 3 241 244 230
-6 -1 3 86 86 86
-5 -1 3 86 86 86
-4 -1 3 86 86 86
-7 0 3 241 244 230
-6 0 3 86 86 86
-5 0 3 86 86 86
-4 0 3 86 86 86
6 0 3 241 244 230
-7 1 3 241 244 230
6 1 3 241 244 230
-7 2 3 241 244 230
-5 2 3 242 60 84
-1 2 3 242 60 84
3 2 3 242 60 84
6 2 3 241 244 230
-7 3 3 241 244 230
-5 3 3 242 60 84
-1 3 3 242 60 84
3 3 3 242 60 84
6 3 3 241 244 230
-7 4 3 241 244 230
-5 4 3 242 60 84
-1 4 3 242 60 84
3 4 3 242 60 84
6 4 3 241 244 230
-7 5 3 241 244 230
6 5 3 241 244 230
-7 6 3 241 244 230
-6 6 3 241 244 230
-5 6 3 241 244 230
-4 6 3 241 244 230
-3 6 3 241 244 230
-2 6 3 241 244 230
-1 6 3 241 244 230
0 6 3 241 244 230
1 6 3 241 244 230
2 6 3 241 244 230
3 6 3 241 244 230
4 6 3 241 244 230
5 6 3 241 244 230
6 6 3 241 244 230
2 -6 4 241 244 230
3 -6 4 241 244 230
4 -6 4 241 244 230
5 -6 4 241 244 230
6 -6 4 241 244 230
2 -5 4 241 244 230
3 -5 4 241 244 230
4 -5 4 241 244 230
5 -5 4 241 244 230
6 -5 4 241 244 230
2 -4 4 241 244 230
3 -4 4 241 244 230
4 -4 4 241 244 230
5 -4 4 241 244 230
6 -4 4 241 244 230
2 -3 4 241 244 230
3 -3 4 241 244 230
4 -3 4 241 244 230
5 -3 4 241 244 230
6 -3 4 241 244 230
2 -2 4 241 244 230
3 -2 4 241 244 230
4 -2 4 241 244 230
5 -2 4 241 244 230
6 -2 4 241 244 230
-7 0 4 241 244 230
6 0 4 241 244 230
-7 1 4 241 244 230
6 1 4 241 244 230
-7 2 4 241 244 230
-5 2 4 242 60 84
-1 2 4 242 60 84
3 2 4 242 60 84
6 2 4 241 244 230
-7 3 4 241 244 230
-5 3 4 242 60 84
-1 3 4 242 60 84
3 3 4 242 60 84
6 3 4 241 244 230
-7 4 4 241 244 230
-5 4 4 242 60 84
-1 4 4 242 60 84
3 4 4 242 60 84
6 4 4 241 244 230
-7 5 4 241 244 230
6 5 4 241 244 230
-7 6 4 241 244 230
-6 6 4 241 244 230
-5 6 4 241 244 230
-4 6 4 241 244 230
-3 6 4 241 244 230
-2 6 4 241 244 230
-1 6 4 241 244 230
0 6 4 241 244 230
1 6 4 241 244 230
2 6 4 241 244 230
3 6 4 241 244 230
4 6 4 241 244 230
5 6 4 241 244 230
6 6 4 241 244 230
-7 0 5 241 244 230
6 0 5 241 244 230
-7 1 5 241 244 230
6 1 5 241 244 230
-7 2 5 241 244 230
-5 2 5 242 60 84
-1 2 5 242 60 84
3 2 5 242 60 84
6 2 5 241 244 230
-7 3 5 241 244 230
-5 3 5 242 60 84
-1 3 5 242 60 84
3 3 5 242 60 84
6 3 5 241 244 230
-7 4 5 241 244 230
-5 4 5 242 60 84
-1 4 5 242 60 84
3 4 5 242 60 84
6 4 5 241 244 230
-7 5 5 241 244 230
6 5 5 241 244 230
-7 6 5 241 244 230
-6 6 5 241 244 230
-5 6 5 241 244 230
-4 6 5 241 244 230
-3 6 5 241 244 230
-2 6 5 241 244 230
-1 6 5 241 244 230
0 6 5 241 244 230
1 6 5 241 244 230
2 6 5 241 244 230
3 6 5 241 244 230
4 6 5 241 244 230
5 6 5 241 244 230
6 6 5 241 244 230
-5 2 6 242 60 84
-1 2 6 242 60 84
3 2 6 242 60 84
-7 3 6 135 138 130
-6 3 6 135 138 130
-5 3 6 242 60 84
-4 3 6 135 138 130
-3 3 6 135 138 130
-2 3 6 135 138 130
-1 3 6 242 60 84
0 3 6 135 138 130
1 3 6 135 138 130
2 3 6 135 138 130
3 3 6 242 60 84
4 3 6 135 138 130
5 3 6 135 138 130
6 3 6 135 138 130
-5 4 6 242 60 84
-1 4 6 242 60 84
3 4 6 242 60 84
-7 6 6 86 86 86
6 6 6 86 86 86
-7 6 7 86 86 86
6 6 7 86 86 86
-7 6 8 86 86 86
6 6 8 86 86 86
-7 6 9 86 86 86
6 6 9 86 86 86
5 4 10 255 225 0
6 4 10 228 231 218
4 5 10 255 225 0
5 5 10 255 225 0
6 5 10 135 138 130
-7 6 10 86 86 86
4 6 10 228 231 218
5 6 10 228 231 218
-7 4 11 228 231 218
-6 4 11 255 225 0
5 4 11 255 225 0
6 4 11 228 231 218
-7 5 11 228 231 218
-6 5 11 255 225 0
-5 5 11 255 225 0
4 5 11 255 225 0
5 5 11 135 138 130
6 5 11 135 138 130
-6 6 11 228 231 218
-5 6 11 228 231 218
4 6 11 228 231 218
-7 4 12 228 231 218
-6 4 12 255 225 0
5 4 12 228 231 218
6 4 12 228 231 218
-7 5 12 228 231 218
-6 5 12 255 225 0
-5 5 12 255 225 0
4 5 12 228 231 218
5 5 12 228 231 218
-6 6 12 228 231 218
-5 6 12 228 231 218
4 6 12 228 231 218
-7 4 13 228 231 218
-6 4 13 228 231 218
-6 5 13 228 231 218
-5 5 13 228 231 218
-5 6 13 228 231 218
