ply
format ascii 1.0
comment : MagicaVoxel @ Ephtracy
element vertex 246
property float x
property float y
property float z
property uchar red
property uchar green
property uchar blue
end_header
-5 -7 0 206 96 200
1 -7 0 55 101 195
-7 -6 0 76 181 223
-1 -6 0 217 203 181
2 -6 0 57 38 19
3 -6 0 57 38 19
5 -6 0 57 38 19
2 -5 0 197 200 189
3 -5 0 197 200 189
4 -5 0 197 200 189
-5 -4 0 54 54 54
2 -4 0 197 200 189
3 -4 0 197 200 189
4 -4 0 228 231 218
-6 -3 0 54 54 54
2 -3 0 57 38 19
5 -3 0 57 38 19
3 -1 0 228 231 218
4 -1 0 197 200 189
5 -1 0 197 200 189
3 0 0 197 200 189
4 0 0 228 231 218
5 0 0 197 200 189
-6 2 0 54 54 54
-5 2 0 54 54 54
-3 2 0 54 54 54
-2 2 0 54 54 54
-6 3 0 86 86 86
-5 3 0 86 86 86
-3 3 0 86 86 86
-2 3 0 86 86 86
5 3 0 206 96 200
-6 4 0 86 86 86
-5 4 0 86 86 86
-3 4 0 86 86 86
-2 4 0 86 86 86
-6 5 0 54 54 54
-5 5 0 54 54 54
-3 5 0 54 54 54
-2 5 0 54 54 54
4 5 0 217 203 181
-2 6 0 55 101 195
0 6 0 217 203 181
3 6 0 206 96 200
6 6 0 76 181 223
-1 -7 1 206 96 200
-2 -6 1 134 60 157
-1 -6 1 217 203 181
0 -6 1 134 60 157
2 -6 1 80 58 33
5 -6 1 80 58 33
-1 -5 1 206 96 200
3 -5 1 228 231 218
4 -5 1 197 200 189
5 -5 1 197 200 189
-5 -4 1 54 54 54
3 -4 1 228 231 218
4 -4 1 197 200 189
5 -4 1 228 231 218
-6 -3 1 54 54 54
2 -3 1 80 58 33
5 -3 1 80 58 33
-5 -1 1 54 54 54
4 -1 1 197 200 189
5 -1 1 197 200 189
6 -1 1 228 231 218
4 0 1 197 200 189
5 0 1 228 231 218
6 0 1 197 200 189
-6 2 1 86 86 86
-5 2 1 135 138 130
-3 2 1 86 86 86
-2 2 1 135 138 130
-6 3 1 86 86 86
-5 3 1 86 86 86
-3 3 1 86 86 86
-2 3 1 86 86 86
-6 4 1 86 86 86
-5 4 1 86 86 86
-3 4 1 86 86 86
-2 4 1 86 86 86
4 4 1 76 181 223
-6 5 1 54 54 54
-5 5 1 54 54 54
-3 5 1 54 54 54
-2 5 1 54 54 54
3 5 1 55 101 195
4 5 1 217 203 181
5 5 1 76 181 223
0 6 1 76 181 223
4 6 1 55 101 195
-1 -6 2 206 96 200
2 -6 2 80 58 33
5 -6 2 80 58 33
2 -5 2 197 200 189
3 -5 2 197 200 189
4 -5 2 228 231 218
2 -4 2 197 200 189
3 -4 2 228 231 218
4 -4 2 197 200 189
-5 -3 2 86 86 86
2 -3 2 80 58 33
5 -3 2 80 58 33
-6 -2 2 54 54 54
-5 -1 2 54 54 54
-6 2 2 86 86 86
-5 2 2 135 138 130
-3 2 2 135 138 130
-2 2 2 135 138 130
-6 3 2 135 138 130
-5 3 2 86 86 86
-3 3 2 86 86 86
-2 3 2 135 138 130
4 5 2 76 181 223
-6 -2 3 86 86 86
-5 -2 3 54 54 54
-6 -1 3 54 54 54
-5 -1 3 54 54 54
-6 2 3 135 138 130
-5 2 3 135 138 130
-4 2 3 135 138 130
-3 2 3 135 138 130
-2 2 3 135 138 130
-6 3 3 86 86 86
-5 3 3 135 138 130
-4 3 3 135 138 130
-3 3 3 135 138 130
-2 3 3 86 86 86
3 -2 4 54 54 54
-6 -1 4 86 86 86
-5 -1 4 135 138 130
2 -1 4 54 54 54
3 -1 4 86 86 86
4 -1 4 54 54 54
5 -1 4 54 54 54
-6 0 4 135 138 130
-5 0 4 135 138 130
2 0 4 86 86 86
3 0 4 54 54 54
2 1 4 54 54 54
3 1 4 86 86 86
4 1 4 54 54 54
5 1 4 54 54 54
-5 2 4 135 138 130
-4 2 4 135 138 130
-3 2 4 197 200 189
-5 3 4 86 86 86
-4 3 4 135 138 130
-3 3 4 86 86 86
-6 -1 5 135 138 130
-5 -1 5 54 54 54
-6 0 5 86 86 86
-5 0 5 135 138 130
1 0 5 86 86 86
-6 1 5 135 138 130
-5 1 5 135 138 130
0 1 5 54 54 54
1 1 5 86 86 86
2 1 5 135 138 130
-5 2 5 86 86 86
-4 2 5 197 200 189
-3 2 5 197 200 189
0 2 5 54 54 54
1 2 5 135 138 130
2 2 5 54 54 54
-5 3 5 135 138 130
-4 3 5 197 200 189
-3 3 5 135 138 130
-6 0 6 86 86 86
-5 0 6 135 138 130
-6 1 6 197 200 189
-5 1 6 197 200 189
-4 1 6 228 231 218
-3 1 6 197 200 189
-2 1 6 135 138 130
-1 1 6 135 138 130
0 1 6 86 86 86
-5 2 6 86 86 86
-4 2 6 197 200 189
-3 2 6 197 200 189
-2 2 6 135 138 130
-1 2 6 135 138 130
0 2 6 54 54 54
1 2 6 135 138 130
-4 3 6 228 231 218
-6 0 7 135 138 130
-5 0 7 228 231 218
-4 0 7 135 138 130
-3 0 7 228 231 218
-2 0 7 135 138 130
-6 1 7 86 86 86
-5 1 7 197 200 189
-4 1 7 197 200 189
-3 1 7 197 200 189
-2 1 7 197 200 189
-1 1 7 228 231 218
-5 2 7 197 200 189
-4 2 7 197 200 189
-3 2 7 197 200 189
-2 2 7 197 200 189
-1 2 7 86 86 86
-5 -1 8 197 200 189
-4 -1 8 197 200 189
-3 -1 8 197 200 189
-5 0 8 197 200 189
-4 0 8 197 200 189
-3 0 8 197 200 189
-5 1 8 228 231 218
-4 1 8 197 200 189
-3 1 8 228 231 218
-5 2 8 228 231 218
-4 2 8 197 200 189
-3 2 8 197 200 189
-5 -2 9 255 225 0
-4 -2 9 228 231 218
-3 -2 9 255 225 0
-5 -1 9 228 231 218
-4 -1 9 197 200 189
-3 -1 9 228 231 218
-5 0 9 197 200 189
-4 0 9 197 200 189
-3 0 9 197 200 189
-5 1 9 197 200 189
-4 1 9 197 200 189
-3 1 9 197 200 189
-4 2 9 228 231 218
-5 -2 10 197 200 189
-4 -2 10 197 200 189
-3 -2 10 197 200 189
-5 -1 10 197 200 189
-4 -1 10 197 200 189
-3 -1 10 197 200 189
-5 0 10 228 231 218
-4 0 10 197 200 189
-3 0 10 197 200 189
-5 1 10 228 231 218
-4 1 10 197 200 189
-3 1 10 228 231 218
-4 -2 11 228 231 218
-5 -1 11 228 231 218
-4 -1 11 228 231 218
-3 -1 11 197 200 189
-5 0 11 228 231 218
-4 0 11 228 231 218
-3 0 11 228 231 218
-4 1 11 228 231 218
