ply
format ascii 1.0
comment : MagicaVoxel @ Ephtracy
element vertex 285
property float x
property float y
property float z
property uchar red
property uchar green
property uchar blue
end_header
-7 -7 0 92 206 44
-6 -7 0 56 139 48
-4 -7 0 248 233 68
-3 -7 0 248 233 68
-1 -7 0 248 233 68
0 -7 0 248 233 68
2 -7 0 248 233 68
3 -7 0 248 233 68
5 -7 0 248 233 68
6 -7 0 248 233 68
-7 -6 0 172 255 104
-6 -6 0 92 206 44
-4 -6 0 174 147 73
-3 -6 0 248 233 68
-1 -6 0 248 233 68
0 -6 0 174 147 73
2 -6 0 248 233 68
3 -6 0 248 233 68
5 -6 0 174 147 73
6 -6 0 248 233 68
-4 -5 0 248 233 68
-3 -5 0 174 147 73
-1 -5 0 174 147 73
0 -5 0 248 233 68
2 -5 0 248 233 68
3 -5 0 174 147 73
5 -5 0 248 233 68
6 -5 0 174 147 73
-7 -4 0 56 139 48
-6 -4 0 56 139 48
-4 -4 0 248 233 68
-3 -4 0 248 233 68
-1 -4 0 248 233 68
0 -4 0 174 147 73
2 -4 0 248 233 68
3 -4 0 248 233 68
5 -4 0 174 147 73
6 -4 0 248 233 68
-7 -3 0 92 206 44
-6 -3 0 56 139 48
-4 -3 0 248 233 68
-3 -3 0 174 147 73
-1 -3 0 248 233 68
0 -3 0 248 233 68
2 -3 0 174 147 73
3 -3 0 174 147 73
5 -3 0 248 233 68
6 -3 0 248 233 68
-4 -2 0 248 233 68
-3 -2 0 248 233 68
-1 -2 0 248 233 68
0 -2 0 248 233 68
2 -2 0 248 233 68
3 -2 0 248 233 68
5 -2 0 174 147 73
6 -2 0 174 147 73
-7 -1 0 56 139 48
-6 -1 0 56 139 48
-4 -1 0 174 147 73
-3 -1 0 248 233 68
-1 -1 0 248 233 68
0 -1 0 174 147 73
2 -1 0 248 233 68
3 -1 0 248 233 68
5 -1 0 248 233 68
6 -1 0 248 233 68
-7 0 0 92 206 44
-6 0 0 56 139 48
-4 0 0 248 233 68
-3 0 0 174 147 73
-1 0 0 174 147 73
0 0 0 248 233 68
2 0 0 248 233 68
3 0 0 174 147 73
5 0 0 248 233 68
6 0 0 248 233 68
-4 1 0 248 233 68
-3 1 0 248 233 68
-1 1 0 248 233 68
0 1 0 174 147 73
2 1 0 248 233 68
3 1 0 174 147 73
5 1 0 174 147 73
6 1 0 248 233 68
-7 2 0 92 206 44
-6 2 0 172 255 104
-4 2 0 174 147 73
-3 2 0 248 233 68
-1 2 0 248 233 68
0 2 0 80 58 33
2 2 0 248 233 68
3 2 0 248 233 68
5 2 0 248 233 68
6 2 0 174 147 73
-7 3 0 56 139 48
-6 3 0 92 206 44
-4 3 0 248 233 68
-3 3 0 174 147 73
-1 3 0 248 233 68
0 3 0 174 147 73
2 3 0 174 147 73
3 3 0 248 233 68
5 3 0 174 147 73
6 3 0 248 233 68
-4 4 0 248 233 68
-3 4 0 248 233 68
-1 4 0 248 233 68
0 4 0 248 233 68
2 4 0 248 233 68
3 4 0 174 147 73
5 4 0 248 233 68
6 4 0 248 233 68
-7 5 0 41 116 71
-6 5 0 56 139 48
-4 5 0 248 233 68
-3 5 0 248 233 68
-1 5 0 174 147 73
0 5 0 248 233 68
2 5 0 174 147 73
3 5 0 248 233 68
5 5 0 248 233 68
6 5 0 174 147 73
-7 6 0 56 139 48
-6 6 0 56 139 48
-4 6 0 231 198 67
-3 6 0 248 233 68
-1 6 0 248 233 68
0 6 0 248 233 68
2 6 0 231 198 67
3 6 0 231 198 67
5 6 0 231 198 67
6 6 0 248 233 68
2 7 0 248 233 68
3 7 0 248 233 68
5 7 0 248 233 68
6 7 0 248 233 68
-7 -7 1 172 255 104
-6 -7 1 92 206 44
-4 -7 1 231 198 67
-3 -7 1 248 233 68
-1 -7 1 248 233 68
0 -7 1 231 198 67
2 -7 1 231 198 67
3 -7 1 248 233 68
5 -7 1 248 233 68
6 -7 1 231 198 67
-7 -6 1 56 139 48
-6 -6 1 172 255 104
-4 -6 1 248 233 68
-3 -6 1 231 198 67
-1 -6 1 231 198 67
0 -6 1 248 233 68
2 -6 1 248 233 68
3 -6 1 231 198 67
5 -6 1 248 233 68
6 -6 1 231 198 67
-4 -5 1 248 233 68
-3 -5 1 248 233 68
-1 -5 1 248 233 68
0 -5 1 248 233 68
2 -5 1 248 233 68
3 -5 1 248 233 68
5 -5 1 231 198 67
6 -5 1 248 233 68
-7 -4 1 92 206 44
-6 -4 1 172 255 104
-4 -4 1 248 233 68
-3 -4 1 248 233 68
-1 -4 1 248 233 68
0 -4 1 231 198 67
2 -4 1 231 198 67
3 -4 1 248 233 68
5 -4 1 248 233 68
6 -4 1 231 198 67
-7 -3 1 172 255 104
-6 -3 1 92 206 44
-4 -3 1 231 198 67
-3 -3 1 248 233 68
-1 -3 1 231 198 67
0 -3 1 248 233 68
2 -3 1 248 233 68
3 -3 1 231 198 67
5 -3 1 248 233 68
6 -3 1 248 233 68
-4 -2 1 231 198 67
-3 -2 1 248 233 68
-1 -2 1 248 233 68
0 -2 1 248 233 68
2 -2 1 248 233 68
3 -2 1 248 233 68
5 -2 1 248 233 68
6 -2 1 248 233 68
-7 -1 1 92 206 44
-6 -1 1 56 139 48
-4 -1 1 248 233 68
-3 -1 1 248 233 68
-1 -1 1 248 233 68
0 -1 1 248 233 68
2 -1 1 248 233 68
3 -1 1 231 198 67
5 -1 1 231 198 67
6 -1 1 248 233 68
-7 0 1 172 255 104
-6 0 1 92 206 44
-4 0 1 248 233 68
-3 0 1 231 198 67
-1 0 1 248 233 68
0 0 1 231 198 67
2 0 1 248 233 68
3 0 1 248 233 68
5 0 1 248 233 68
6 0 1 248 233 68
-4 1 1 231 198 67
-3 1 1 248 233 68
-1 1 1 231 198 67
0 1 1 248 233 68
2 1 1 231 198 67
3 1 1 248 233 68
5 1 1 248 233 68
6 1 1 231 198 67
-7 2 1 172 255 104
-6 2 1 56 139 48
-4 2 1 248 233 68
-3 2 1 248 233 68
-1 2 1 248 233 68
0 2 1 80 58 33
2 2 1 248 233 68
3 2 1 231 198 67
5 2 1 231 198 67
6 2 1 248 233 68
-7 3 1 92 206 44
-6 3 1 172 255 104
-4 3 1 248 233 68
-3 3 1 248 233 68
-1 3 1 231 198 67
0 3 1 248 233 68
2 3 1 231 198 67
3 3 1 248 233 68
5 3 1 248 233 68
6 3 1 248 233 68
-4 4 1 248 233 68
-3 4 1 231 198 67
-1 4 1 248 233 68
0 4 1 248 233 68
2 4 1 248 233 68
3 4 1 248 233 68
5 4 1 248 233 68
6 4 1 231 198 67
-7 5 1 41 116 71
-6 5 1 92 206 44
-4 5 1 231 198 67
-3 5 1 248 233 68
-1 5 1 248 233 68
0 5 1 231 198 67
2 5 1 248 233 68
3 5 1 231 198 67
5 5 1 231 198 67
6 5 1 248 233 68
-7 6 1 92 206 44
-6 6 1 172 255 104
-4 6 1 248 233 68
-3 6 1 248 233 68
-1 6 1 231 198 67
0 6 1 248 233 68
2 6 1 231 198 67
3 6 1 248 233 68
5 6 1 248 233 68
6 6 1 231 198 67
2 7 1 248 233 68
3 7 1 248 233 68
5 7 1 248 233 68
6 7 1 248 233 68
-2 2 2 80 58 33
0 2 2 80 58 33
-1 2 3 80 58 33
0 2 3 80 58 33
1 2 3 80 58 33
2 2 3 80 58 33
0 2 4 243 121 21
0 1 5 151 112 58
-1 2 5 151 112 58
0 2 5 151 112 58
1 2 5 151 112 58
0 3 5 151 112 58
0 2 6 151 112 58
